# .PCD v0.7 - Point Cloud Data file format
VERSION 0.7
FIELDS x y z intensity
SIZE 4 4 4 4
TYPE F F F F
COUNT 1 1 1 1
WIDTH 1377
HEIGHT 1
VIEWPOINT 0 0 0 1 0 0 0
POINTS 1377
DATA ascii
1.737884 22.081892 -6.35146 38
12.542318 18.469324 -6.5935221 32
3.693995 47.147038 -6.6463909 27
27.755596 40.933258 -7.3650331 13
6.988318 89.999794 0 58
1.96391 25.523268 -6.3824759 54
14.554688 21.513353 -6.697032 26
4.9352651 64.433479 -6.792068 210
37.896416 56.05703 -7.6756902 29
8.3450069 109.45187 3.8332369 23
2.285368 30.253153 -6.4488282 61
17.329302 25.691746 -6.8484192 19
2.7169571 36.821918 -6.5103478 42
21.316555 31.72238 -7.0587392 15
1.596056 22.050241 -6.3393469 39
12.435078 18.561277 -6.596374 32
3.399859 47.199409 -6.650631 31
27.569897 41.183414 -7.37675 12
1.802022 25.51412 -6.3772311 54
14.413876 21.596357 -6.6923442 23
4.5754671 65.105583 -6.8597498 65
37.287617 55.910419 -7.6181092 35
2.0932159 30.237717 -6.442606 61
17.172588 25.807716 -6.8478708 18
50.884239 76.528961 -7.1815372 32
2.498095 36.832825 -6.509541 36
21.114529 31.828104 -7.0513401 18
1.460485 22.10532 -6.3524179 43
12.297721 18.60804 -6.583457 41
3.100415 47.176994 -6.6445971 28
27.206791 41.198647 -7.3447881 11
8.9406815 136.77411 0 54
1.650918 25.52947 -6.3785071 54
14.283537 21.678579 -6.689363 25
4.1691842 64.8228 -6.8272281 62
36.972137 56.156456 -7.6166248 35
1.902719 30.242836 -6.4410229 61
16.996893 25.894987 -6.8399968 22
50.219761 76.56871 -7.1484089 26
2.267184 36.856972 -6.5111618 42
20.913803 31.959641 -7.048141 19
1.3190449 22.071894 -6.3403049 43
12.184838 18.691504 -6.5838261 42
2.8073411 47.252888 -6.6526699 33
26.9708 41.404705 -7.3472428 11
8.1282902 137.62604 0 22
1.489552 25.523447 -6.3745379 54
14.151045 21.774054 -6.6890569 27
3.751616 64.671982 -6.8087268 210
36.525642 56.244553 -7.5920448 45
1.723029 30.250198 -6.4403 61
16.827618 25.991636 -6.834908 23
49.58345 76.644341 -7.1191678 24
2.033622 36.835342 -6.5049558 41
20.723192 32.10685 -7.048666 19
1.187591 22.070896 -6.337883 50
12.066374 18.752083 -6.5779939 45
2.5266719 47.264656 -6.6520991 30
26.71199 41.576267 -7.3438392 10
1.329924 25.547064 -6.3782229 54
14.018223 21.869194 -6.688899 29
36.257889 56.607765 -7.6049128 40
1.533363 30.269014 -6.4421282 60
16.676109 26.095768 -6.8337379 25
49.1092 76.90815 -7.109807 22
1.800928 36.822609 -6.5005808 42
20.475241 32.164459 -7.0298572 21
1.049348 22.087486 -6.3406281 48
11.949198 18.82892 -6.5765429 43
2.228503 47.255257 -6.648674 27
26.478748 41.756039 -7.3440089 14
1.169044 25.547533 -6.3763809 54
13.872087 21.926521 -6.679069 29
2.943789 64.331665 -6.7686062 55
36.097099 57.09996 -7.6371398 40
1.3519239 30.237463 -6.4335918 60
16.494982 26.153074 -6.8205891 27
49.077667 77.873711 -7.165297 27
1.5942709 36.809612 -6.496613 41
20.283886 32.260185 -7.023181 22
0.918051 22.088297 -6.3391848 39
11.831849 18.890867 -6.571713 40
1.9514641 47.350552 -6.660336 31
26.155758 41.793007 -7.3193989 13
1.025977 25.544575 -6.3741131 54
13.735682 21.998768 -6.6740651 31
2.581532 64.83889 -6.820241 210
36.023602 57.739471 -7.6889319 32
1.161207 30.227034 -6.4296932 60
16.329103 26.254223 -6.817534 29
1.362084 36.795258 -6.4924412 40
20.063143 32.358532 -7.0139461 25
0.78740197 22.10574 -6.3427391 39
11.694886 18.935635 -6.5596662 47
1.6533689 47.346222 -6.658134 25
25.882902 41.940727 -7.3127489 15
0.86428303 25.515856 -6.3654661 54
13.608474 22.102966 -6.6774192 34
35.814808 58.216137 -7.7169619 12
0.98075598 30.200741 -6.42275 60
16.165802 26.338896 -6.8120952 31
1.131328 36.818089 -6.4950862 40
19.843206 32.457413 -7.0051579 23
0.64831299 22.104095 -6.3409729 23
11.586082 19.01088 -6.559979 51
1.371106 47.311119 -6.6519361 32
25.581993 42.008888 -7.2943702 15
0.70380503 25.515667 -6.3641901 54
13.444571 22.147251 -6.6629672 33
1.7663209 64.857399 -6.819314 63
0.79099602 30.206879 -6.4228711 60
15.972716 26.394876 -6.7979541 27
44.351662 73.348808 -6.6528358 22
0.89921099 36.79332 -6.4895921 44
19.615955 32.543419 -6.9939318 23
0.50922102 22.099249 -6.3385401 38
11.465226 19.081339 -6.5573802 45
1.074751 47.359989 -6.6577258 30
25.265919 42.082813 -7.2756271 14
0.552872 25.542131 -6.3698602 54
13.297845 22.219078 -6.6571341 34
1.360379 64.943649 -6.8273501 56
32.942844 55.087109 -7.236752 45
0.60118699 30.211252 -6.4228711 60
15.782203 26.45389 -6.7849569 29
1.593176 81.491447 -5.6995258 10
43.631721 73.192886 -6.607141 37
0.68097901 36.80439 -6.4907179 36
19.405064 32.629936 -6.9847822 24
0.37028301 22.097506 -6.3372469 38
11.332484 19.131687 -6.5481629 45
0.77723598 47.370445 -6.6583781 32
25.025795 42.282616 -7.2789731 14
0.39155599 25.491665 -6.356535 54
13.164858 22.296068 -6.6546259 33
0.97297102 64.817146 -6.813324 20
32.618618 55.287125 -7.2327652 35
0.41120499 30.203583 -6.4205651 60
15.633931 26.583569 -6.7903671 30
1.08013 81.425041 -5.694294 9
43.014072 73.198578 -6.5766039 30
0.44971699 36.807903 -6.4907112 43
19.192942 32.739754 -6.9793 25
0.23903801 22.089138 -6.3343301 42
11.197577 19.177721 -6.5377941 41
0.47929701 47.345966 -6.6543822 31
24.735088 42.39695 -7.2678981 14
0.231499 25.506735 -6.3598051 54
13.019633 22.369968 -6.6499681 33
0.56655502 64.92038 -6.823667 54
32.619789 56.091431 -7.3059978 31
0.231655 30.164762 -6.4119072 60
15.445432 26.623343 -6.774621 27
0.59784001 81.554512 -5.703001 9
42.490314 73.358635 -6.5603628 33
0.21834999 36.795002 -6.4880662 45
18.975899 32.84074 -6.9722409 21
0.100177 22.075562 -6.3301301 42
11.097868 19.268641 -6.544415 37
0.198232 47.323605 -6.6509581 27
24.452684 42.490189 -7.2552428 14
0.071234003 25.508217 -6.3599381 45
12.87061 22.437016 -6.6435642 28
0.042093001 30.145563 -6.4076428 60
15.271577 26.708897 -6.769331 25
42.106068 73.700188 -6.5623031 34
-0.012826 36.747753 -6.4796209 42
18.746347 32.919224 -6.9607358 22
-0.038557 22.092089 -6.3348141 40
10.974339 19.334042 -6.5411668 38
-0.099177003 47.354671 -6.6552801 29
24.101719 42.495747 -7.2263598 14
-0.34410101 140.82779 0 210
-0.080100998 25.497389 -6.357244 46
12.717907 22.497143 -6.635417 33
-0.249542 64.989937 -6.8307681 63
33.299244 58.952202 -7.6130309 9
-0.14721601 30.124599 -6.4032578 60
15.099785 26.7978 -6.7651792 33
-0.230748 36.724525 -6.4756532 47
18.535946 33.003662 -6.9523602 24
-0.177238 22.075678 -6.3303032 39
10.83367 19.368689 -6.5278239 46
-0.39620599 47.29277 -6.6467991 37
23.834225 42.64632 -7.2225308 12
-1.2285531 140.77898 0 210
-0.240073 25.471937 -6.3511491 50
12.58083 22.5662 -6.6316142 37
-0.63420302 64.886032 -6.8201232 56
32.854458 58.979347 -7.5863008 10
-0.33583799 30.064625 -6.3908319 60
14.935534 26.900108 -6.7646799 29
46.217155 83.309357 -7.3510351 50
-0.461119 36.692924 -6.4704628 48
18.321217 33.106834 -6.9466939 25
-0.315649 22.053854 -6.3244882 34
10.713094 19.438795 -6.5267339 52
-0.69244301 47.22781 -6.6381488 44
23.548733 42.764236 -7.2134809 14
-2.1128969 140.75739 0 210
-0.40008599 25.46822 -6.3507242 48
12.422649 22.61541 -6.6208568 37
-1.0398951 64.757248 -6.807138 19
32.497517 59.21064 -7.5844278 14
-0.51438498 30.070698 -6.3926592 60
14.755762 26.974298 -6.757391 31
45.540642 83.319717 -7.3193078 55
-0.69101602 36.655266 -6.4644599 43
18.105923 33.208607 -6.9410338 30
-0.44591901 22.022272 -6.3160791 40
10.584634 19.478252 -6.516984 53
-0.97235101 47.206665 -6.6358709 38
23.251642 42.859867 -7.2010179 15
-2.9971659 140.7372 0 210
-0.55941099 25.433941 -6.342927 47
12.264058 22.662989 -6.609952 41
-1.449537 64.873993 -6.8202329 63
32.412315 59.94532 -7.647048 18
-0.70382202 30.088646 -6.3972878 60
14.590508 27.05225 -6.7527552 31
45.442257 84.324898 -7.376893 46
-0.90730298 36.601486 -6.455812 45
17.902777 33.304741 -6.9359651 28
-0.57694799 22.032789 -6.3199658 32
10.468028 19.539164 -6.5146751 47
-1.251507 47.164063 -6.6308098 41
22.967546 42.906189 -7.183763 14
-3.784461 140.76743 0 104
-0.71105802 25.456316 -6.3494482 45
12.137068 22.749817 -6.6121311 43
-1.83239 64.79039 -6.8124671 56
32.375931 60.73674 -7.7183628 13
-0.88074601 30.028942 -6.3855929 60
14.4141 27.108976 -6.7430959 30
-1.137313 36.596832 -6.4561238 37
17.692335 33.415001 -6.932642 27
-0.71515203 22.021973 -6.318028 38
10.331388 19.578651 -6.504179 53
-1.548184 47.166325 -6.6323652 35
22.691816 43.038857 -7.1781721 17
-4.668735 140.73743 0 210
-0.86122 25.42551 -6.342927 49
11.990167 22.818544 -6.6079421 45
-2.2479351 65.023285 -6.838305 53
-1.068772 30.005058 -6.3818169 60
14.225938 27.165499 -6.7323089 29
40.693485 77.773323 -6.7467642 23
-1.353478 36.562874 -6.451437 45
17.456102 33.447292 -6.914906 26
-0.85341799 22.014793 -6.3173819 39
10.210478 19.647621 -6.5037618 49
-1.842713 47.109825 -6.625917 46
22.396091 43.132706 -7.1664329 14
-5.5548539 140.75441 0 120
-1.0199291 25.394035 -6.3365488 48
11.845114 22.871075 -6.600667 47
-2.610229 64.428253 -6.7772379 60
-1.255813 29.962822 -6.3743858 60
14.072785 27.288889 -6.7383609 33
40.378704 78.366493 -6.7693839 27
-1.5824341 36.536392 -6.448391 35
17.238203 33.541916 -6.908958 26
-0.98441797 22.017782 -6.3198051 36
10.082962 19.703835 -6.4993839 47
-2.136332 47.045731 -6.618659 47
22.072638 43.170864 -7.145823 18
-6.440598 140.74893 0 128
-1.1787241 25.371223 -6.3325801 44
11.692643 22.928312 -6.5937238 52
-3.0238781 64.600464 -6.7972159 55
-1.4336751 29.956558 -6.3747511 60
13.87919 27.310106 -6.7208109 32
-1.810479 36.495758 -6.4431 37
17.000031 33.596039 -6.8949952 30
-1.122252 22.0016 -6.317059 34
9.9670897 19.765757 -6.4984078 47
-2.415586 47.034542 -6.6189861 49
21.837166 43.34296 -7.149178 14
-1.338711 25.374672 -6.3354149 45
11.550872 23.00635 -6.5930371 55
-3.4285359 64.558037 -6.7948852 210
-1.62007 29.913767 -6.3676848 60
13.706786 27.395699 -6.718081 32
40.185173 80.388054 -6.8878422 30
-2.038238 36.456585 -6.4383178 34
16.778303 33.681507 -6.8877969 31
-1.2596951 21.980619 -6.3131828 36
9.8374281 19.817368 -6.4930482 48
-2.7100279 47.000477 -6.6164579 46
21.538116 43.426304 -7.1367068 20
-1.48773 25.340174 -6.3288941 44
11.393977 23.053959 -6.5839138 56
-3.8503749 64.809242 -6.8237371 56
-1.806538 29.878967 -6.3625689 60
13.517922 27.447855 -6.707448 32
40.099941 81.493835 -6.9539938 42
-2.25126 36.390862 -6.428957 35
16.54484 33.712624 -6.87117 32
-1.39835 21.981264 -6.3157668 32
9.7072639 19.867622 -6.4875259 43
-3.0062859 46.998158 -6.618659 42
21.187765 43.402893 -7.1071062 17
38.604866 79.151695 -0.58089101 12
-1.646031 25.31671 -6.3254919 47
11.250739 23.108362 -6.578269 54
-4.2767 65.424843 -6.8911042 29
-1.992442 29.840151 -6.356843 60
13.334188 27.509533 -6.69946 32
-2.4804139 36.384056 -6.4303818 39
16.323895 33.797699 -6.8645182 33
-1.536552 21.97373 -6.3162522 29
9.5717392 19.906384 -6.4785471 52
-3.300261 46.9604 -6.6161318 43
20.927174 43.561253 -7.1076322 13
-9.9386797 140.71802 0 90
38.182861 79.551201 -0.57545197 16
-1.804016 25.291122 -6.321806 43
11.099902 23.16728 -6.5729451 47
-4.6276469 64.559044 -6.8028388 63
-2.1702321 29.838129 -6.3590441 60
13.170407 27.587543 -6.696991 40
-2.7060111 36.328011 -6.4233551 41
16.097834 33.871437 -6.8558722 31
-7.541492 100.76913 -3.5287769 12
-1.6645319 21.932774 -6.3072071 28
9.4507446 19.95713 -6.4749341 58
-3.577635 46.923786 -6.6138482 46
20.630594 43.604954 -7.0911479 16
-10.77877 140.72487 0 89
37.577938 79.568611 -0.56728703 25
-1.962979 25.28046 -6.3221002 38
10.945137 23.217512 -6.5654469 46
-5.056128 64.822777 -6.8338418 56
-2.3554499 29.79587 -6.353066 60
12.981957 27.638128 -6.686893 38
-2.9323559 36.287323 -6.419291 36
15.871244 33.943142 -6.8471289 28
-8.1505203 100.42443 -3.51843 16
-1.803275 21.93367 -6.3105989 27
9.3163538 19.997206 -6.4669542 46
-3.8694811 46.865108 -6.6088738 41
20.330015 43.677441 -7.0783129 16
-2.114145 25.28253 -6.325644 35
10.7983 23.284222 -6.562891 53
-5.456356 64.707161 -6.8251328 63
28.671564 61.880676 -7.601778 24
-2.5429561 29.784481 -6.35392 60
12.804179 27.710781 -6.6824331 38
-3.1479361 36.272732 -6.4199018 37
15.653839 34.002617 -6.8375001 28
-1.939065 21.899466 -6.3041391 24
9.2012911 20.07884 -6.4726682 48
-4.16469 46.849155 -6.6101842 39
20.076399 43.850655 -7.0820928 18
-2.2716329 25.254025 -6.3219581 37
10.661315 23.350904 -6.5617542 51
-5.7701249 63.897228 -6.743196 56
28.51145 62.504833 -7.6526132 13
-2.728009 29.745693 -6.3491759 60
12.610354 27.747862 -6.6697021 41
-3.3745501 36.239021 -6.417562 32
15.439862 34.100246 -6.8345642 30
-2.062505 21.900631 -6.3076921 27
9.0794563 20.108765 -6.4642162 48
-4.4212012 46.771442 -6.6026001 39
19.809681 43.91444 -7.0711269 17
-2.418195 25.206144 -6.3134532 33
10.522058 23.41264 -6.5594578 52
-6.174551 64.125206 -6.7710028 11
27.728559 61.756481 -7.5358701 20
-2.8932631 29.721437 -6.3473492 59
12.454433 27.816179 -6.66714 41
-3.5704279 36.154148 -6.405962 29
15.209748 34.129585 -6.8194799 34
-2.200238 21.88892 -6.308176 29
8.949954 20.15871 -6.4602141 51
-4.711782 46.710991 -6.598115 33
19.506554 43.977585 -7.0577312 20
-13.082511 129.2437 0 74
-2.5705521 25.219065 -6.3203979 37
10.369354 23.443949 -6.5488992 54
-6.5910048 64.439774 -6.808228 63
27.473316 62.231495 -7.5674758 33
-3.076699 29.671318 -6.3406491 58
12.274315 27.882298 -6.6619458 43
-7.778892 74.764305 -5.2562509 58
-3.800957 36.163712 -6.4117618 28
14.996267 34.194874 -6.8118758 34
-2.3338959 21.83882 -6.2978401 27
8.8264513 20.222185 -6.460804 51
-5.008213 46.708733 -6.6021109 31
19.195534 44.020584 -7.04146 20
-13.902331 129.23352 0 71
-2.72963 25.208632 -6.3219581 38
10.211861 23.48567 -6.5404129 48
-3.2524669 29.650259 -6.3401608 57
12.084081 27.92466 -6.6513758 44
-8.2293148 74.540237 -5.24403 61
-4.0222869 36.086929 -6.402503 31
14.780182 34.286247 -6.8085389 33
37.666771 87.461258 -3.900105 33
-2.4645851 21.834661 -6.3007469 32
8.7035971 20.267921 -6.457056 53
-5.2807932 46.638409 -6.5964842 38
18.913752 44.129082 -7.0359969 19
-14.892344 130.7085 0 67
37.568916 87.73941 -0.57393402 38
-2.885371 25.168354 -6.316278 40
10.065853 23.553482 -6.5394711 52
-7.4241419 64.559731 -6.8302212 41
-3.4381051 29.624115 -6.3390651 56
11.910948 27.978931 -6.645072 45
-4.2420602 36.002491 -6.3921251 29
14.557919 34.362984 -6.8025799 30
-12.580265 106.44933 -3.7431619 27
37.23732 87.981667 -3.9057169 32
-2.6021941 21.82266 -6.301877 36
8.574975 20.319592 -6.45438 55
-5.5684881 46.56052 -6.5902872 37
18.649715 44.236191 -7.0318451 21
-15.767229 131.44742 0 63
37.373756 88.735176 -0.57226503 27
-3.043997 25.154243 -6.3174119 41
9.9202757 23.62248 -6.5391111 48
-7.7439132 63.805523 -6.7554421 34
-3.621314 29.578604 -6.3340702 55
11.717216 28.010906 -6.6326432 43
-4.4548469 35.970383 -6.391006 29
14.323977 34.41114 -6.7912712 33
-13.339766 107.09808 -3.768847 19
36.862396 88.643417 -3.9176271 17
-2.738976 21.803644 -6.3012309 38
8.4453869 20.368853 -6.4512019 55
-5.8600502 46.51767 -6.589303 43
18.336332 44.267818 -7.0147681 17
-3.192637 25.131226 -6.316278 44
9.773385 23.665098 -6.5327778 49
-8.1607018 64.059074 -6.7872939 15
25.540712 61.966404 -7.4360471 58
-3.802691 29.521122 -6.3267531 54
11.544226 28.09185 -6.6321011 46
-4.6828532 35.957706 -6.3938551 36
14.090228 34.423958 -6.7744589 35
-12.7457 97.602951 -3.437309 13
38.187393 93.388916 -4.1102252 30
-2.874738 21.777069 -6.2986469 32
8.3227291 20.434992 -6.4536209 55
-6.154119 46.49435 -6.5913472 39
18.044479 44.349342 -7.005939 19
-3.352813 25.128178 -6.320682 39
9.6298094 23.739126 -6.534306 40
-8.5507317 63.914585 -6.777544 63
25.436132 62.767303 -7.50911 46
-3.9877231 29.493845 -6.3261518 54
11.36318 28.153145 -6.6271868 51
-4.9098592 35.93615 -6.395381 36
13.862022 34.482861 -6.765903 34
-13.274456 96.90593 -3.415632 26
37.529926 93.452858 -4.0951471 44
-3.0018351 21.744562 -6.2942872 35
8.1968813 20.472933 -6.4483938 55
-6.4301462 46.458698 -6.5915861 44
17.738771 44.395027 -6.9917789 21
-3.5059071 25.072832 -6.3121772 39
9.473278 23.781128 -6.5272841 56
-8.8591251 63.196026 -6.707118 56
24.604753 61.82901 -7.3732309 33
-4.1621099 29.465689 -6.3252988 54
11.199469 28.229033 -6.627027 44
-13.831404 97.673317 -6.8981252 11
27.901274 70.398758 -5.725832 39
-5.1286101 35.856037 -6.3867331 37
13.638501 34.552589 -6.759769 36
27.7544 70.386581 -3.071094 210
-3.1396079 21.733635 -6.2967091 36
8.0664139 20.519779 -6.4452262 55
-6.7162709 46.37833 -6.586041 40
17.452097 44.441143 -6.979188 19
-3.660078 25.027769 -6.3064981 45
9.317647 23.824778 -6.5210018 62
-9.4400263 64.394302 -6.8404531 55
24.391449 62.432003 -7.4217029 51
-4.342052 29.404333 -6.3178601 54
11.008764 28.265165 -6.6167531 43
-14.40537 97.317932 -6.879282 9
27.247087 70.029579 -5.6762042 210
-5.3326979 35.767326 -6.3764558 27
13.425898 34.649895 -6.759305 32
-12.26964 81.902527 -2.892015 41
27.24744 70.393806 -3.058326 210
-3.273833 21.698441 -6.2923479 35
7.9439821 20.587307 -6.4488001 55
-7.0106702 46.355907 -6.5889821 37
17.144764 44.477913 -6.9642978 20
27.158876 70.530434 -0.4217 12
-3.811276 25.023632 -6.3110428 38
9.1740322 23.874256 -6.517581 47
-9.6784582 63.39703 -6.7404981 210
-4.5269861 29.378208 -6.318233 54
10.816821 28.296808 -6.6057382 41
26.859802 70.33886 -5.6819139 210
-5.5616689 35.761055 -6.3814421 30
13.195193 34.66367 -6.7439032 37
-12.665874 81.253693 -2.8717079 60
26.755939 70.361504 -3.0447481 86
-3.4093151 21.672436 -6.290895 31
7.8190408 20.648882 -6.4507418 57
-7.29881 46.29203 -6.5862908 34
16.856327 44.56192 -6.957129 22
26.634632 70.486504 -0.41490901 16
-3.966995 24.99017 -6.3087649 43
9.025835 23.936703 -6.5169601 47
-10.14665 63.775253 -6.7873559 57
23.425253 62.190006 -7.3487201 63
-4.7102122 29.341261 -6.3165278 53
10.648639 28.390406 -6.609458 45
-5.7766562 35.666164 -6.3708601 33
12.96096 34.702583 -6.7326512 40
-12.09435 74.507996 -2.635932 55
-3.5388601 21.657938 -6.2926722 30
7.6887312 20.696482 -6.4485669 57
-7.5761819 46.163952 -6.5747108 26
16.554398 44.608727 -6.944468 20
26.132992 70.495361 -0.40848801 16
-4.120512 24.944035 -6.3035302 35
8.8851757 23.994005 -6.51615 47
-10.554152 63.890884 -6.8062081 53
23.313028 63.023296 -7.425982 48
-4.8735409 29.31167 -6.315918 34
10.466099 28.384853 -6.5923481 46
-5.993269 35.661415 -6.3762531 30
12.750017 34.765831 -6.7274408 39
-12.416944 73.726387 -2.610841 57
-3.6687291 21.644886 -6.295094 29
7.5731702 20.73951 -6.4470739 57
-7.8241739 46.063713 -6.566556 31
16.283499 44.641544 -6.932128 21
25.684917 70.492149 -0.40276301 22
-4.2646461 24.949211 -6.31076 34
8.7237492 24.020466 -6.5062709 47
-10.808587 62.968136 -6.7150111 56
22.495672 62.008312 -7.2846861 54
-5.0492239 29.231901 -6.3054419 35
10.277784 28.423058 -6.5837278 41
27.238775 75.410728 -6.0336041 77
-6.194386 35.565533 -6.3655691 29
12.530955 34.806065 -6.7180429 37
-12.869232 73.737396 -2.613889 57
-3.8027999 21.610868 -6.292026 30
7.4390841 20.776554 -6.4421129 57
-8.097928 45.925644 -6.553998 28
15.954045 44.606972 -6.9074922 17
25.164431 70.436424 -0.39607999 21
-4.415164 24.887218 -6.301971 32
8.5800676 24.069036 -6.5035892 47
22.344145 62.749645 -7.3514018 51
-5.2228022 29.202551 -6.305686 30
10.099542 28.488615 -6.5817242 45
-17.065489 95.036354 -6.7518821 12
26.752686 75.547241 -6.0250702 77
-6.4290099 35.588375 -6.376761 25
12.303726 34.860622 -6.7106938 42
-13.28013 73.366974 -2.6036651 57
-3.9330931 21.599558 -6.2954168 28
7.3206639 20.834564 -6.4447999 57
-8.3719778 45.885914 -6.5553031 26
15.701249 44.785603 -6.9161749 21
-13.576946 74.120697 0 32
24.67063 70.44825 -0.389835 25
-4.5820379 24.916578 -6.3165708 31
8.4282665 24.121323 -6.5012369 47
-11.68614 63.423382 -6.7782788 62
21.53721 61.707695 -7.2084942 19
-5.4053469 29.164652 -6.3047109 28
9.9267006 28.537668 -6.577106 43
-17.49254 94.197815 -6.699564 12
26.430613 76.069328 -6.0485139 76
-6.6429439 35.496269 -6.3676109 21
12.069158 34.893032 -6.6993842 41
-13.704474 73.08812 -2.5967729 57
-4.0651789 21.555601 -6.2899261 28
7.1934352 20.891249 -6.4464111 57
-8.6426687 45.740044 -6.5420918 25
15.369554 44.687084 -6.8834081 23
-13.9312 73.588005 0 50
24.193344 70.422241 -0.38377899 22
-4.7219601 24.847618 -6.3060818 32
8.2807112 24.158457 -6.4959612 47
-11.89893 62.4949 -6.6864781 55
21.356695 62.448917 -7.2743802 63
-5.5836272 29.104784 -6.2992291 29
9.7397833 28.577719 -6.5697532 46
27.314053 80.234489 -6.3597221 75
-6.8511648 35.444324 -6.3654742 22
11.847589 34.921894 -6.6886549 40
-12.915853 66.694878 -2.3723071 57
37.790512 111.51904 -4.7124138 60
-4.202693 21.540689 -6.2931561 29
7.056612 20.919971 -6.4396548 57
-8.9101868 45.584045 -6.5276589 26
15.088635 44.783249 -6.8799429 19
-14.416267 73.616364 0 33
23.693951 70.405144 -0.377478 27
-4.882154 24.838655 -6.3114681 35
8.1312618 24.217466 -6.4959269 47
21.234461 63.316174 -7.355937 48
-5.7571368 29.075672 -6.300211 23
9.5596552 28.63722 -6.5671468 33
-18.85088 94.856316 -6.762713 17
26.764425 80.269676 -6.3428702 75
-7.0696621 35.380211 -6.3618112 21
11.62665 34.991772 -6.6851101 36
-13.214996 66.014679 -2.3510201 55
37.111141 111.82077 -4.7066598 58
-4.3335552 21.530832 -6.297678 35
6.9317851 20.959778 -6.4374251 57
-9.1731901 45.493965 -6.52244 25
14.80513 44.819046 -6.8684921 16
23.206011 70.415749 -0.37137601 27
-5.0231872 24.733948 -6.292757 34
7.9705768 24.242645 -6.4870901 47
20.403316 62.130119 -7.198287 63
-5.9305139 28.993967 -6.2904582 29
9.3738346 28.645414 -6.553946 46
-19.386446 94.611076 -6.7533121 17
26.347317 80.609703 -6.3514271 75
-7.2844658 35.29945 -6.3553939 28
11.395477 35.030056 -6.6758161 37
-13.664953 66.101768 -2.357132 54
36.609837 112.67347 -4.724185 55
-4.460958 21.465679 -6.286696 35
6.8077278 21.026926 -6.442977 57
-9.454833 45.416115 -6.5196671 27
14.491452 44.812904 -6.849947 20
22.73517 70.389435 -0.365468 32
-5.169755 24.703148 -6.2926149 39
7.8389111 24.327787 -6.4953942 47
20.265646 63.044472 -7.284452 48
-6.1168318 28.976322 -6.2948432 29
9.1978302 28.716747 -6.5545802 55
26.047867 81.42244 -6.396214 74
-7.4762921 35.173195 -6.340539 31
11.184569 35.088165 -6.6714869 36
-14.005015 65.775528 -2.3484211 54
37.633335 118.20566 -4.9382071 51
-4.5964499 21.440531 -6.2876649 34
6.671546 21.056877 -6.4373808 57
-9.7236776 45.279797 -6.5087399 27
14.214999 44.920132 -6.849041 16
22.249727 70.395714 -0.35943899 34
-5.322947 24.661285 -6.2903471 37
7.6752882 24.342899 -6.4844022 47
19.484404 61.871925 -7.1309838 47
-6.2788138 28.894148 -6.284976 29
9.0094862 28.749302 -6.5466309 52
-20.648638 94.703224 -6.7778769 15
26.680679 85.242401 -6.676497 72
-7.6875081 35.081562 -6.332603 30
10.952862 35.122398 -6.6619949 40
-14.487066 66.000816 -2.359668 54
37.138618 119.23836 -4.9624772 47
-4.7263899 21.425528 -6.291379 39
6.5434432 21.086323 -6.4327011 57
-9.9866924 45.196369 -6.5051522 29
13.92979 44.944328 -6.8367009 21
21.759398 70.380203 -0.35334599 35
-5.4798908 24.636789 -6.292757 39
7.5236669 24.395447 -6.4836578 47
19.324974 62.738869 -7.2119508 46
-6.4627399 28.865313 -6.2874122 27
8.837348 28.797768 -6.5434151 46
-21.10281 94.099937 -6.7435441 19
26.262186 85.68573 -6.69275 72
-7.8932662 35.025192 -6.330771 33
10.732445 35.192093 -6.659513 41
-14.995872 66.326004 -2.3746159 54
36.496269 119.82254 -4.968111 15
-4.8594189 21.388821 -6.2894421 32
6.4183159 21.151707 -6.4384198 57
-10.243949 45.016178 -6.4883528 27
13.577305 44.800591 -6.7982502 20
21.288408 70.333107 -0.34747601 41
-5.625865 24.603283 -6.2926149 39
7.3808708 24.446623 -6.4835992 47
-14.302811 62.449368 -6.7336421 14
19.164371 63.635975 -7.2962232 49
-6.638185 28.799006 -6.28193 31
8.6601563 28.865801 -6.5440578 50
-21.691008 93.954102 -6.7427258 19
27.120157 90.510956 -7.0493412 72
-8.0899687 34.874851 -6.3126612 34
10.519761 35.242893 -6.6545749 41
-15.547027 66.915184 -2.3989711 54
-4.9917889 21.349636 -6.2870188 31
6.2828679 21.183449 -6.434145 57
-10.512045 44.888821 -6.4793892 23
13.318581 44.962769 -6.806551 17
20.809511 70.341888 -0.34159899 44
-5.7825532 24.576857 -6.2950249 33
7.2250099 24.48535 -6.4796901 47
-14.653196 62.181267 -6.714529 28
18.362587 62.310398 -7.1271348 38
-6.808435 28.756876 -6.2814431 31
8.4836779 28.899536 -6.537991 49
-22.267847 93.906761 -6.748693 18
26.575525 90.763573 -7.0490279 69
-8.3035765 34.80088 -6.3085909 32
10.283734 35.25898 -6.6425161 39
-15.840035 66.284225 -2.3798721 54
-5.113658 21.299925 -6.2812052 28
6.1527538 21.233234 -6.435606 57
-10.779743 44.76318 -6.470902 25
13.029016 45.022083 -6.7995372 20
20.325819 70.328293 -0.33565801 42
-5.9312439 24.51683 -6.289072 30
7.0664358 24.514351 -6.4734778 47
-14.958386 61.736271 -6.6764941 34
18.20015 63.221512 -7.213326 29
-6.9912891 28.722996 -6.283514 27
8.2979593 28.938419 -6.5325518 50
-22.674566 93.014832 -6.6946998 17
-8.5129995 34.711033 -6.3018761 28
10.063074 35.326691 -6.6404691 39
-16.291973 66.329048 -2.3851089 54
-5.2495461 21.276121 -6.2837892 34
6.0220151 21.253027 -6.4289742 57
-11.05576 44.741234 -6.4770999 24
12.734118 45.001411 -6.781621 21
19.845348 70.319305 -0.32978401 47
-6.0805058 24.46032 -6.2842522 32
6.9185529 24.580593 -6.4773579 47
-15.32093 61.540417 -6.6655922 29
17.397009 61.891819 -7.0443201 32
-7.1656518 28.654631 -6.2782831 23
8.1204224 29.005886 -6.5338268 48
-23.232985 92.768463 -6.6873431 17
-8.723032 34.625526 -6.2961779 31
9.8317738 35.356354 -6.6315489 37
37.776955 136.03487 -5.559761 12
-5.3775892 21.220879 -6.277328 29
5.8916368 21.302294 -6.430768 57
-11.297703 44.517387 -6.454843 21
12.453716 45.089947 -6.7795892 20
19.337353 70.108208 -0.32334301 210
-6.2277961 24.432623 -6.28652 29
6.7592859 24.606514 -6.4708681 47
-15.665441 61.279213 -6.64783 36
17.268166 62.949078 -7.147418 42
-7.3305759 28.550716 -6.2654839 27
7.9340649 29.04188 -6.5282741 48
-23.608273 91.815102 -6.6291809 14
-8.9055519 34.484879 -6.2801018 27
9.6212969 35.412251 -6.628612 41
37.105476 136.94862 -5.5773211 12
-5.5194659 21.219925 -6.2871799 32
5.7582402 21.340981 -6.4296169 57
-11.544427 44.319748 -6.4365759 18
12.136647 45.042915 -6.7574859 20
18.906839 70.266853 -0.31833199 48
-6.3734169 24.363308 -6.2788649 29
6.608408 24.628525 -6.464344 47
-15.98435 61.015495 -6.629395 33
-7.5039792 28.481926 -6.2606111 24
7.7471342 29.075018 -6.5223551 44
-24.183054 91.658737 -6.6287322 17
26.091011 98.057213 -7.5340929 59
-9.1121473 34.390869 -6.273284 27
9.3972626 35.46693 -6.6249208 33
36.385853 137.52051 -5.582129 19
-5.6516681 21.181015 -6.2860498 34
5.6250181 21.380466 -6.4289598 57
-11.810534 44.200932 -6.4299712 19
11.856025 45.128288 -6.755558 20
18.441185 70.293602 -0.31274799 48
-6.5299048 24.33596 -6.282268 28
6.458972 24.690348 -6.4677968 47
-16.342453 60.821003 -6.6192889 30
16.266659 62.270401 -7.0381932 52
-7.6709199 28.429701 -6.259027 24
7.5742879 29.119804 -6.5200381 50
-24.639631 91.191986 -6.6054339 15
25.621811 98.787613 -7.570375 56
-9.3153524 34.286198 -6.2647448 23
9.1633863 35.483269 -6.6143541 40
-5.777853 21.149281 -6.286696 29
5.5013752 21.426437 -6.4311771 57
-12.083029 44.168125 -6.4355159 18
11.588423 45.199413 -6.7525611 21
17.959534 70.253098 -0.30690801 48
-6.694293 24.336662 -6.2931819 30
6.3038292 24.730902 -6.4659271 47
-16.697351 60.619366 -6.608633 33
16.103224 63.267719 -7.1346188 27
-7.8503242 28.384293 -6.2597661 21
7.3926978 29.172829 -6.519093 47
-25.190279 90.956505 -6.5997119 13
-9.5223894 34.197533 -6.2593522 22
8.9379845 35.531101 -6.609942 46
-5.908041 21.103336 -6.2839499 31
5.3668928 21.461588 -6.4297061 57
-12.323969 43.961716 -6.4165969 20
11.287449 45.20425 -6.7391462 24
17.505339 70.210068 -0.301413 49
-6.8196449 24.229197 -6.2757468 34
6.146378 24.762211 -6.4619021 47
-17.019815 60.307438 -6.5861549 29
15.32283 61.824123 -6.956234 35
-8.0133553 28.28092 -6.2479491 23
7.2052531 29.202482 -6.5131898 46
-25.749786 90.755951 -6.5967689 19
-9.7156677 34.107124 -6.2532468 19
8.7181606 35.547546 -6.6006918 43
-6.0420718 21.071213 -6.2855649 34
5.229383 21.484375 -6.4247942 57
-12.568718 43.774662 -6.4006958 19
11.005926 45.285492 -6.737411 20
17.036362 70.205376 -0.29581299 52
-6.9761548 24.201164 -6.279716 28
5.9943581 24.777702 -6.4546781 47
-17.348944 60.106842 -6.5753751 29
15.173526 62.815758 -7.0531578 52
-8.1854496 28.211262 -6.2437992 24
7.0179939 29.232044 -6.5075412 45
-26.225092 90.26738 -6.573103 14
-9.9152346 33.995552 -6.2440901 22
8.4972916 35.612743 -6.6000371 44
-6.1756148 21.037159 -6.2868581 34
5.0916772 21.50577 -6.419734 57
-12.817332 43.605759 -6.3876491 17
10.686198 45.205791 -6.7120452 18
-7.1308122 24.166124 -6.2821259 27
5.8416581 24.828053 -6.4561272 47
-17.718172 59.969265 -6.5723739 29
-8.345706 28.138563 -6.2385612 26
6.8381991 29.292749 -6.5090871 49
-26.823223 90.206711 -6.5808291 17
-10.109647 33.868958 -6.2323818 24
8.2736006 35.666451 -6.5975151 45
-6.3024468 21.007154 -6.2889571 37
4.959908 21.517982 -6.412818 57
-13.05066 43.445019 -6.3753352 23
10.426214 45.377632 -6.7243118 22
-7.2767591 24.101793 -6.277164 34
5.6837502 24.856417 -6.4521151 47
-18.013172 59.587337 -6.5427918 32
14.198592 62.19379 -6.9535699 50
-8.5138521 28.057602 -6.232348 28
6.665112 29.336596 -6.507782 46
-27.278357 89.783653 -6.5616589 19
-10.319049 33.794281 -6.2304492 25
8.0527401 35.732819 -6.5975938 40
-6.4166222 20.909492 -6.2716651 40
4.82372 21.54475 -6.4098821 57
-13.300015 43.28614 -6.3641582 27
10.160776 45.456692 -6.7237792 22
-7.4112639 24.030989 -6.2700672 40
5.523376 24.873241 -6.4453778 47
-18.342806 59.32935 -6.5269899 36
14.022745 63.252506 -7.0573082 22
-8.6791029 27.968519 -6.2245512 30
6.4805088 29.377234 -6.5053682 46
-27.704758 89.168961 -6.5293279 14
-10.493637 33.649822 -6.2151871 25
7.8339858 35.749992 -6.5895162 42
-6.541935 20.875345 -6.2729568 44
4.6988811 21.587212 -6.4124489 57
-13.539621 43.152199 -6.3561659 29
9.8810968 45.471291 -6.7139611 21
-7.554419 23.988754 -6.2706351 40
5.3879409 24.92021 -6.4479032 47
-18.664577 59.196487 -6.5237398 41
13.315902 61.692722 -6.8708611 21
-8.8407059 27.937098 -6.2284489 34
6.3012381 29.392645 -6.498251 49
-27.993217 88.245819 -6.4737821 17
-10.681055 33.549019 -6.2081671 26
7.6211972 35.793465 -6.5865321 43
-6.6626072 20.8265 -6.27005 42
4.5627489 21.577122 -6.3996468 57
-13.794225 43.067265 -6.3556008 23
9.5833387 45.476192 -6.7022991 22
-7.7143998 23.970039 -6.2782888 40
5.2336841 24.965147 -6.4489312 47
-18.965376 58.858406 -6.499486 41
13.128679 62.734028 -6.9729338 39
-9.0113029 27.866274 -6.2251601 36
6.1305342 29.447891 -6.500175 47
-28.525024 88.104843 -6.4757438 19
-10.875751 33.432411 -6.199111 30
7.390069 35.811169 -6.5784268 41
-6.8050551 20.820097 -6.2808709 46
4.436337 21.650513 -6.411273 58
-14.027364 42.866104 -6.3387971 25
9.3292065 45.609974 -6.7105632 18
-7.853312 23.88599 -6.2690749 40
5.069005 24.959543 -6.4371729 47
-19.3002 58.632915 -6.4878488 44
-9.1723709 27.7672 -6.2157798 34
5.9452529 29.485163 -6.4977751 43
-28.961311 87.57093 -6.449749 22
-11.082674 33.393574 -6.2039952 25
7.1703191 35.88393 -6.5807042 42
-6.9245009 20.743271 -6.2706962 42
4.295928 21.656338 -6.4031358 58
-14.259085 42.665409 -6.3222432 27
9.0165186 45.536736 -6.687974 23
-7.9876852 23.817408 -6.2634048 44
4.9275908 25.023651 -6.4442048 47
-19.610882 58.407421 -6.4756608 46
11.859626 60.449005 -6.693089 63
-9.3363962 27.67861 -6.2089581 30
5.76161 29.530823 -6.4974809 41
-29.455418 87.222763 -6.4376101 22
-11.27227 33.264256 -6.193006 28
6.9499922 35.888348 -6.5713072 43
-7.06251 20.722279 -6.2776408 42
4.1617689 21.693306 -6.404469 58
-14.510575 42.527199 -6.3151479 27
8.7198448 45.538269 -6.6766849 19
-8.1338606 23.757067 -6.2608538 40
4.7585521 24.99259 -6.4264331 47
-19.927595 58.13752 -6.4594922 44
11.434886 60.171955 -6.6506782 48
-9.5177708 27.641621 -6.213953 32
5.5686059 29.527498 -6.486681 44
-29.981724 86.974632 -6.433073 23
-11.455211 33.118065 -6.1790671 28
6.7247672 35.933464 -6.5690298 41
12.729355 68.150253 -2.662931 210
-7.1862779 20.682663 -6.2784481 42
4.0213671 21.69735 -6.3963432 58
-14.776157 42.431351 -6.3145771 27
8.4452314 45.655315 -6.682601 24
12.651859 68.530281 -0.242174 63
-8.2790308 23.694221 -6.2578769 45
4.599359 25.010754 -6.4216042 49
-20.25189 57.895107 -6.446568 45
11.020397 60.045406 -6.6245828 50
12.361914 67.487427 2.15853 63
-9.6711922 27.554911 -6.207252 32
5.3947039 29.567778 -6.486268 50
-30.51165 86.835991 -6.4360981 20
11.073151 60.931599 -4.5421638 210
-11.658269 33.03183 -6.1765232 28
6.4998641 35.980572 -6.56738 43
12.242978 67.907578 -2.6455829 48
-7.3046079 20.604721 -6.2685971 41
3.8908319 21.71129 -6.3919001 58
-14.995667 42.252697 -6.3011222 27
8.1668863 45.663956 -6.6735148 26
12.184753 68.266762 -0.236433 48
-8.4426451 23.683542 -6.2689428 38
4.4429889 25.044048 -6.4209189 49
-20.587637 57.689335 -6.437932 40
10.618917 59.977978 -6.6053472 53
11.918148 67.453468 2.15977 48
-9.8267441 27.445038 -6.1962881 32
5.21277 29.623543 -6.4889531 46
-31.02825 86.563332 -6.430212 20
10.704763 60.958542 -4.5352669 210
-11.842946 32.931118 -6.170723 26
6.2680039 35.988205 -6.5587969 45
11.700183 67.316452 -2.614887 210
-7.4392891 20.573248 -6.273118 45
3.7548981 21.738537 -6.3911219 58
-15.235373 42.087261 -6.2906022 27
7.8836422 45.736588 -6.67344 21
11.517488 66.957794 -0.226933 48
-8.5776024 23.618063 -6.2649741 39
4.296103 25.080517 -6.421793 51
10.259664 60.147903 -6.6125269 55
11.534379 67.763695 2.1721101 50
-9.993474 27.367643 -6.1928692 40
5.021924 29.628492 -6.4807682 46
-31.359997 85.78801 -6.3871288 24
-12.017835 32.769375 -6.1544442 24
6.049726 35.997326 -6.5512981 42
11.279046 67.256676 -2.605449 50
-7.5623789 20.509752 -6.2681231 39
3.6184061 21.762709 -6.3896952 58
-15.465557 41.898712 -6.2768211 26
7.5980849 45.797081 -6.6718559 26
11.029473 66.623634 -0.220888 50
-8.7238541 23.558372 -6.263556 37
4.1410961 25.123163 -6.4239898 51
-21.251394 57.326962 -6.4259892 56
9.9159613 60.2892 -6.617414 58
11.14161 67.889137 2.1784749 48
-10.168645 27.31348 -6.1949482 34
4.8386879 29.678003 -6.482594 49
-31.890244 85.567406 -6.3854971 22
-12.212175 32.662952 -6.148746 29
5.8345499 36.103439 -6.5611582 38
10.924038 67.746666 -2.616967 53
-7.684731 20.466591 -6.2687578 45
3.4853101 21.808254 -6.3947902 58
-15.71502 41.76487 -6.2714391 26
7.3047791 45.810013 -6.6636181 25
10.699132 67.247757 -0.218027 52
-8.8640728 23.48288 -6.2581701 38
3.9799449 25.128376 -6.4168749 51
-21.564821 57.069656 -6.412209 56
9.568038 60.546978 -6.6346712 60
10.712711 67.944351 2.1827991 47
-10.320998 27.227468 -6.1892219 33
4.6575851 29.674934 -6.4736762 44
-32.488468 85.616531 -6.4034371 25
-12.420037 32.593124 -6.1501708 25
5.5990849 36.08456 -6.548562 38
10.705823 69.155388 -2.663897 53
-7.8210392 20.438452 -6.2750669 39
3.3529949 21.810066 -6.387753 58
-15.9439 41.622116 -6.2641001 28
7.0259299 45.807697 -6.6539879 24
10.312398 67.549492 -0.214082 52
-9.0024633 23.403374 -6.2519331 35
3.818038 25.126936 -6.4083338 51
-21.884443 56.832973 -6.400939 56
9.2706251 61.154743 -6.6904178 60
10.272695 67.925011 2.1847999 46
-10.495173 27.170637 -6.1911721 35
4.471365 29.705763 -6.47193 41
-32.855877 84.971336 -6.3704958 23
-12.594086 32.435909 -6.1353159 28
5.3690081 36.097233 -6.541976 37
10.286159 69.322792 -2.6629691 53
-7.931488 20.34322 -6.2610049 41
3.2205579 21.862375 -6.3953061 58
-16.185272 41.470306 -6.256434 27
6.74015 45.865742 -6.6528478 25
-9.1490583 23.369658 -6.257319 35
3.6828871 25.183723 -6.4157639 51
-22.142035 56.557926 -6.38379 56
9.1219053 62.52837 -6.8310838 59
9.8081331 67.39698 2.1701889 46
-10.642568 27.100927 -6.188735 35
4.3041382 29.72164 -6.4680858 38
-33.273247 84.642319 -6.3596621 26
-12.771232 32.355404 -6.1334839 28
5.1680312 36.131622 -6.5405388 36
9.7948179 68.650162 -2.630744 55
-8.0510006 20.313789 -6.2656889 46
3.094202 21.85033 -6.385108 58
-16.392881 41.319397 -6.2473831 25
6.4878402 45.930679 -6.6539888 23
9.7148571 68.950134 -0.209379 49
-9.2814732 23.299641 -6.2532091 37
3.5219691 25.187685 -6.4090939 50
-22.469978 56.350029 -6.3761339 56
8.6219702 61.818134 -6.743082 55
9.4589357 67.992516 2.192127 48
-10.801143 27.004789 -6.182157 37
4.1135998 29.721312 -6.4600592 37
-33.748577 84.29213 -6.3491578 27
-12.941717 32.22604 -6.1234112 29
4.9485812 36.125511 -6.5315261 34
9.3281231 68.452316 -2.616118 55
-8.1711111 20.244556 -6.260047 39
2.9566059 21.867523 -6.3828712 57
-16.609789 41.110676 -6.2314811 25
6.193449 45.928459 -6.6446242 22
9.1763811 68.228661 -0.202291 47
-9.4007816 23.197783 -6.2407351 30
3.373101 25.21307 -6.4085431 50
-22.753822 56.092075 -6.362113 56
9.0457087 67.975403 2.194248 51
-10.960011 26.910381 -6.176188 33
3.9299829 29.77087 -6.4631362 34
-34.167198 83.807793 -6.328722 29
-13.126689 32.101894 -6.1153731 30
4.728879 36.212387 -6.5391121 34
9.0665874 69.618553 -2.6540401 58
-8.2977171 20.21183 -6.2650428 43
2.8192811 21.886677 -6.3814631 57
-16.873062 41.018383 -6.233438 27
5.9088011 45.997986 -6.6459112 16
8.641428 67.456871 -0.195188 48
-9.5483027 23.142988 -6.2420101 34
3.2110119 25.205467 -6.3994508 49
-23.046625 55.804699 -6.3458171 55
8.6372442 68.179405 2.203742 49
-11.114024 26.831633 -6.173142 31
3.7539489 29.799206 -6.4622631 32
-34.642426 83.551727 -6.3247981 27
10.4223 82.966743 -6.0823069 63
-13.332122 32.02837 -6.1172051 28
4.4974041 36.210354 -6.5309 32
8.6467781 69.817818 -2.6546991 58
-8.4143543 20.134905 -6.257463 35
2.688308 21.894508 -6.377378 57
-17.056835 40.775681 -6.2118282 28
5.6309299 45.992947 -6.6371579 19
8.3334885 68.264748 -0.192947 46
-9.6740294 23.058661 -6.2346392 37
3.052083 25.221043 -6.3965101 49
-23.385283 55.631397 -6.3426929 55
7.5517969 62.587841 -6.7977238 48
-11.284173 26.765497 -6.1741161 39
3.5659471 29.816395 -6.4588132 37
-34.892864 82.683495 -6.2755461 25
9.8990526 83.015915 -6.0754881 60
-13.501929 31.9014 -6.1081491 28
4.2767458 36.188141 -6.519743 38
-8.5464153 20.095079 -6.261652 43
2.5487239 21.894083 -6.37077 57
-17.298151 40.633537 -6.2066088 28
5.356267 46.151745 -6.651824 21
7.976737 68.940895 -0.189987 49
-9.8117838 22.981176 -6.2302361 43
2.9004011 25.221632 -6.3903918 49
-23.671482 55.389835 -6.3310561 55
7.281827 63.517471 -6.8896961 45
-11.42478 26.630337 -6.1593761 37
3.3771651 29.826097 -6.4540048 44
-35.390469 82.413216 -6.2717848 26
9.4570093 83.783035 -6.121377 56
-13.664901 31.729548 -6.0915651 31
4.05305 36.247955 -6.523201 45
-8.644948 19.996447 -6.2467928 43
2.4199159 21.919315 -6.3722248 57
-17.513851 40.47213 -6.197721 25
5.0634499 46.159573 -6.6449828 23
-9.9501085 22.905552 -6.2265592 33
2.7425959 25.246016 -6.3901858 49
-23.950256 55.081829 -6.3129268 55
-11.589233 26.577272 -6.1629 40
3.2016871 29.860273 -6.4551139 47
-35.796604 82.013222 -6.257401 23
-13.877192 31.673191 -6.0973639 27
3.8277459 36.296669 -6.5249152 40
-8.7744999 19.951015 -6.2497001 44
2.2830081 21.942375 -6.3729448 57
-17.755642 40.333675 -6.19348 25
4.7979259 46.270584 -6.653676 21
-10.093665 22.863787 -6.231379 38
2.5837319 25.260933 -6.3878388 49
-24.247078 54.819942 -6.3002491 55
6.4196119 62.981201 -6.8134971 210
-11.745087 26.479342 -6.1571832 37
3.0126719 29.866566 -6.450079 49
-36.198994 81.533966 -6.2380648 28
-14.025234 31.501196 -6.0801692 26
3.609421 36.289894 -6.5172858 42
-8.906827 19.911463 -6.2547178 38
2.14711 21.976902 -6.377244 57
-17.99662 40.194309 -6.189322 27
4.4974809 46.200932 -6.6362281 24
8.9393187 92.163864 -0.234998 49
-10.216862 22.754793 -6.2190471 34
2.434207 25.280199 -6.387167 49
-24.531349 54.584736 -6.2898369 55
6.0416441 62.975246 -6.8047419 48
8.1020355 84.763046 2.7587509 45
-11.903923 26.388828 -6.1534061 37
2.824513 29.880217 -6.4468961 49
-36.626865 81.119522 -6.2238421 28
-14.193847 31.34832 -6.0677562 26
3.382714 36.32666 -6.5173588 43
9.7492933 105.09414 -3.9476631 50
-8.9998913 19.803392 -6.2374358 34
2.01387 21.958843 -6.366838 57
-18.185585 39.978569 -6.1726098 23
4.2081451 46.239704 -6.6346359 26
8.3602266 92.220016 -0.22875001 47
-10.371423 22.715975 -6.2261248 42
2.275564 25.297701 -6.3859711 49
5.587182 62.357273 -6.7297421 34
7.598855 85.143456 2.7753019 45
-12.055532 26.307304 -6.15097 38
2.647239 29.89744 -6.4450631 45
-14.396564 31.271624 -6.0703001 24
3.1568339 36.375225 -6.519804 43
9.1299963 105.63019 -3.9584019 46
-9.1498928 19.802185 -6.2550411 38
1.876186 21.974876 -6.3662658 57
-18.38673 39.756084 -6.1559739 22
3.933372 46.260242 -6.6310711 28
-10.485723 22.610224 -6.2140851 36
2.1155169 25.298916 -6.3809209 49
-25.158363 54.149559 -6.2756281 57
5.267385 63.257164 -6.8188052 210
-12.224943 26.240389 -6.153163 38
2.4576371 29.892799 -6.438446 44
-37.429157 80.267097 -6.1930642 56
-14.55035 31.118212 -6.0571742 24
2.939472 36.37534 -6.514153 40
-9.2595091 19.713173 -6.2451782 40
1.737624 21.980501 -6.362936 57
-18.627256 39.620834 -6.1530328 25
3.6485441 46.359127 -6.6386061 23
7.0654879 90.177917 -0.21161699 23
-10.637277 22.564465 -6.2197552 32
1.964595 25.301243 -6.376689 49
-25.473528 53.987194 -6.274219 57
8.3712978 108.79467 3.5569229 16
-12.375293 26.156504 -6.1506038 37
2.2722721 29.940655 -6.4433932 46
-37.842373 79.839668 -6.178309 54
-14.74806 31.031387 -6.0581908 26
2.6977241 36.388172 -6.5103931 42
-9.3846426 19.657654 -6.2461472 42
1.599189 21.986937 -6.360096 57
-18.838558 39.425007 -6.140882 25
3.354373 46.342205 -6.6298199 24
6.480392 89.965698 -0.20496801 38
-10.769016 22.476675 -6.2140851 32
1.806223 25.322029 -6.3770761 49
-25.778473 53.755665 -6.2660122 57
4.4865699 63.209595 -6.7988458 63
7.6801748 109.28335 3.578922 14
-12.531081 26.037668 -6.1420689 40
2.0825861 29.932491 -6.436542 42
-38.292286 79.494476 -6.170094 28
-14.917146 30.885111 -6.0478129 27
2.480875 36.390762 -6.5056891 38
-9.504076 19.6077 -6.248085 47
1.461786 22.008226 -6.3618078 57
-19.059034 39.250538 -6.1322389 24
3.0674479 46.427677 -6.6359501 22
5.9426599 90.425575 -0.199861 40
-10.912268 22.413168 -6.2153611 36
1.6475559 25.340122 -6.377037 49
-26.047049 53.451721 -6.249537 57
4.1118841 63.585361 -6.8320122 48
6.9990911 108.82242 3.569304 20
-12.683123 25.958248 -6.1409798 37
1.906229 29.964787 -6.438911 39
-38.671154 79.077339 -6.1554198 28
-15.109127 30.787149 -6.047101 28
2.2543061 36.440041 -6.5092802 33
-9.6392803 19.572357 -6.2559991 45
1.329386 21.987146 -6.3517551 57
-19.263668 39.080055 -6.1233549 23
2.792053 46.4478 -6.633316 23
8.1698103 136.70738 -0.29340401 18
-11.045568 22.329384 -6.2112498 34
1.487801 25.341335 -6.3730059 49
-26.345148 53.211807 -6.2407169 57
3.7137389 63.634827 -6.8303561 10
-12.846227 25.878559 -6.1411018 39
1.718992 29.994915 -6.440793 34
-39.039547 78.575783 -6.1353521 26
-15.285654 30.685102 -6.0447679 23
2.037277 36.439331 -6.5044699 40
-9.7645845 19.516443 -6.2576141 43
1.193031 22.028671 -6.3598032 57
-19.4779 38.896473 -6.113646 24
2.498342 46.43066 -6.6253009 24
7.3304968 137.1264 -0.28504801 17
-11.182724 22.2731 -6.213943 33
1.3382289 25.365492 -6.3752198 49
-26.63847 53.010799 -6.2355719 57
3.323391 63.414024 -6.8003559 56
-13.000572 25.781469 -6.1373258 39
1.5285341 29.966652 -6.430398 38
-39.481121 78.227188 -6.1273808 25
-15.443223 30.519428 -6.031127 30
1.810764 36.501438 -6.510848 28
-9.8751431 19.448145 -6.254395 38
1.053218 22.006893 -6.3498278 57
-19.718224 38.766083 -6.112504 28
2.210412 46.526463 -6.633667 18
6.4934168 137.69244 -0.27696899 19
-11.306952 22.172009 -6.2054381 37
1.178688 25.370392 -6.3726139 48
-26.960155 52.821098 -6.2330608 57
-13.140018 25.677849 -6.1311131 38
1.350673 29.974997 -6.4283409 40
-39.883617 77.872391 -6.118021 25
-15.654195 30.459772 -6.0386562 26
1.581104 36.505615 -6.5071511 34
-10.004354 19.399696 -6.2589059 44
0.92290902 22.01992 -6.350338 57
-19.886976 38.530315 -6.0938301 25
1.939212 46.657417 -6.6475639 16
-11.444469 22.097498 -6.2045879 36
1.019459 25.382275 -6.3720179 48
-27.29821 52.663593 -6.234592 57
2.5352981 63.677639 -6.8160629 37
-13.292109 25.57749 -6.1269708 37
1.162149 29.978746 -6.4253259 44
-40.259102 77.402985 -6.1008959 26
-15.809056 30.317225 -6.0288882 27
1.36287 36.472111 -6.4972291 37
-10.127633 19.339483 -6.2598858 39
0.78389198 22.007191 -6.3434768 60
-20.134619 38.415943 -6.0956302 22
1.644256 46.618687 -6.6372609 17
-11.58042 22.038759 -6.2072811 35
0.86825103 25.371246 -6.366106 48
-27.539429 52.366032 -6.2186031 57
2.1574359 63.693081 -6.8121738 58
-13.454427 25.497017 -6.1278229 33
0.972812 29.956114 -6.4169178 47
-40.654289 76.977425 -6.0873671 27
-15.986272 30.192818 -6.024004 28
1.134809 36.51614 -6.501143 38
-10.240632 19.27606 -6.2589169 38
0.646308 22.035755 -6.348774 60
-20.303068 38.15239 -6.0739331 25
1.349257 46.557217 -6.624002 22
-11.705552 21.940983 -6.200336 33
0.70869201 25.371521 -6.3630958 48
-27.89263 52.238262 -6.2241192 57
-13.599 25.404602 -6.1248999 38
0.79591 29.994415 -6.421998 48
-41.035027 76.5942 -6.076211 22
-16.177301 30.094828 -6.0246148 24
0.90425903 36.478539 -6.490788 43
-10.354842 19.19891 -6.254869 44
0.51568902 22.045805 -6.3491302 60
-20.605145 38.172096 -6.0964289 63
1.074384 46.626259 -6.6298099 27
-11.83311 21.866636 -6.199059 36
0.54929799 25.377005 -6.3616481 48
-28.21558 52.053268 -6.2230778 57
1.36019 63.869843 -6.8201442 59
-13.752605 25.308081 -6.1223421 36
0.60743201 29.998682 -6.4198561 52
-41.39397 76.111458 -6.0584288 25
-16.353945 29.99526 -6.024004 26
0.68758798 36.473289 -6.486639 47
-10.481217 19.144339 -6.2584209 42
0.37720799 22.051296 -6.348269 60
-20.847942 38.048016 -6.0974131 56
0.78127497 46.624409 -6.6255589 27
-11.953571 21.761457 -6.190413 34
0.39875999 25.383671 -6.360888 48
-28.518057 51.874161 -6.221787 57
0.98179197 63.91811 -6.8205199 46
-13.908027 25.215149 -6.1208801 38
0.41858801 29.977129 -6.4124479 47
-41.764046 75.655449 -6.0429001 23
-16.552423 29.910595 -6.0277691 26
0.45828301 36.466938 -6.4823608 44
-10.609674 19.108889 -6.2673039 48
0.24628299 22.047363 -6.3450651 60
-20.84646 37.515312 -6.0317621 56
0.489021 46.696125 -6.6320271 24
-12.091173 21.687908 -6.19098 33
0.239299 25.389517 -6.3600259 48
-28.738958 51.506721 -6.1992531 58
0.58296198 64.231087 -6.8491082 17
-14.056552 25.13064 -6.1205058 41
0.240693 29.978918 -6.410429 50
-42.11145 75.226212 -6.0284691 25
-16.74231 29.810061 -6.0285902 23
0.22912399 36.465492 -6.479218 48
-10.718745 19.022711 -6.2610049 40
0.107753 22.048906 -6.3435631 60
-20.999716 37.238098 -6.008287 210
0.21193101 46.702099 -6.6296058 27
-12.232528 21.638544 -6.1975002 32
0.079677999 25.361959 -6.3510551 48
-29.026123 51.261749 -6.191597 58
0.178636 63.96817 -6.8165641 45
-14.204857 25.02541 -6.1164942 39
0.052264001 29.94417 -6.4007082 49
-42.506767 74.825455 -6.0176382 27
-16.902634 29.681604 -6.02279 23
0.012737 36.485077 -6.4802122 52
-10.821021 18.925196 -6.251164 31
-0.030755 22.027056 -6.3355861 60
-21.266127 37.16283 -6.0175838 210
-0.081522003 46.709946 -6.6275191 23
-12.373337 21.570135 -6.2000518 28
-0.070862003 25.375992 -6.352849 48
-29.300812 51.038101 -6.1854758 58
-14.357524 24.928217 -6.114666 39
-0.135859 29.939177 -6.3976092 51
-42.91362 74.448563 -6.008893 23
-17.055574 29.517326 -6.0110831 24
-0.216482 36.480827 -6.4770789 49
-10.929543 18.839293 -6.2453499 24
-0.169148 22.02573 -6.3337688 60
-21.535625 37.091202 -6.0277772 210
-0.374762 46.6782 -6.6200862 23
