# .PCD v0.7 - Point Cloud Data file format
VERSION 0.7
FIELDS x y z intensity
SIZE 4 4 4 4
TYPE F F F F
COUNT 1 1 1 1
WIDTH 1363
HEIGHT 1
VIEWPOINT 0 0 0 1 0 0 0
POINTS 1363
DATA ascii
23.429432 41.716625 -7.2421541 15
-0.203118 26.44924 -6.4419918 42
12.473255 22.281719 -6.6504579 35
-0.569821 70.973587 -7.078867 18
32.463097 58.038288 -7.7040939 15
-0.273976 30.187168 -6.246686 86
14.801594 26.527802 -6.7905979 28
46.408825 83.243385 -7.68325 55
18.096468 32.539658 -6.9699421 29
-0.278561 22.799513 -6.4031749 37
10.644164 19.218395 -6.5458312 47
-0.63765597 50.740551 -6.8566632 30
23.131411 41.798962 -7.2285771 17
-0.360026 26.444586 -6.4418612 44
12.32369 22.324324 -6.6398888 43
-0.98594201 70.608521 -7.044394 12
32.368774 58.684338 -7.7609568 13
-0.48231199 31.400408 -6.4989729 83
14.604214 26.564964 -6.7748418 28
45.724209 83.240837 -7.6515069 58
-0.64877898 38.717644 -6.6151981 75
17.893492 32.656059 -6.968677 26
-0.42128399 22.768965 -6.395771 37
10.509649 19.260059 -6.5361428 50
-0.95583802 50.702881 -6.8533888 34
22.874327 41.954479 -7.2279811 19
-0.52549201 26.407505 -6.434135 41
12.17901 22.393648 -6.636198 42
-1.462966 72.25045 -7.2105851 16
-0.66835201 31.383623 -6.4968982 81
14.43582 26.653994 -6.7726378 31
45.546581 84.166397 -7.705256 46
-0.89201701 38.71204 -6.615953 73
17.647087 32.692135 -6.9506049 26
-0.55659199 22.774347 -6.3986268 40
10.41129 19.352043 -6.5450888 54
-1.2560591 50.670631 -6.8509951 35
22.602766 42.083405 -7.223094 17
-0.69183201 26.42004 -6.4387541 44
12.027787 22.450541 -6.6291161 42
-1.911078 72.020523 -7.1903 23
-0.86443102 31.339085 -6.4894061 79
14.272705 26.7304 -6.7688618 28
41.262268 77.342323 -7.0537791 46
-1.134111 38.667419 -6.610302 72
17.433657 32.787937 -6.94558 26
-0.69920403 22.75507 -6.3948789 39
10.269144 19.378675 -6.5308919 55
-1.573535 50.633732 -6.848351 36
22.285572 42.090118 -7.19908 18
-0.85748202 26.404785 -6.4368558 44
11.889297 22.530989 -6.6292682 42
-2.3440559 71.413025 -7.1325731 56
-1.0605201 31.309376 -6.4852409 77
14.084672 26.781898 -6.7577229 32
40.626518 77.316521 -7.0235729 46
-1.360407 38.57098 -6.5959182 70
17.197807 32.840508 -6.9317269 25
-0.84199202 22.745571 -6.3941331 37
10.144223 19.437145 -6.5277362 50
-1.888883 50.549 -6.8395071 39
21.970482 42.133057 -7.180202 15
-1.012161 26.347328 -6.424798 41
11.74507 22.58131 -6.622118 49
-2.743031 70.759293 -7.0702782 9
-1.257077 31.29851 -6.4852338 75
13.897344 26.833612 -6.746974 31
40.085865 77.46579 -7.0096941 48
-1.603297 38.575375 -6.5991511 69
17.004627 32.945862 -6.9306931 30
-0.97614598 22.721437 -6.3893962 37
10.024997 19.489796 -6.5241451 52
-2.186645 50.48687 -6.8338189 38
21.736122 42.293915 -7.183177 16
-1.169039 26.353231 -6.4284172 43
11.596526 22.622637 -6.6126132 55
-3.159482 70.665901 -7.0641942 12
-1.440979 31.251385 -6.4778228 74
13.743474 26.926596 -6.748188 32
-1.82954 38.509655 -6.5904908 67
16.784431 32.998226 -6.9187899 28
-1.118354 22.704004 -6.3869071 32
9.8913317 19.530661 -6.515645 54
-2.5026309 50.448204 -6.831728 37
21.418324 42.327618 -7.163445 18
-1.331767 26.289503 -6.415421 43
11.453032 22.692827 -6.610559 50
-3.5961931 70.502892 -7.0516038 56
-1.636729 31.230682 -6.4762731 73
13.556971 26.978493 -6.7380872 33
-2.069782 38.46611 -6.5860262 66
16.578472 33.106441 -6.917551 30
-1.250007 22.641632 -6.3718681 33
9.7690754 19.593733 -6.5148368 43
-2.820811 50.453941 -6.8359208 36
21.116463 42.390118 -7.1489749 16
-1.497108 26.28388 -6.4168549 43
11.305582 22.754997 -6.6064448 53
-1.81941 31.175604 -6.4676738 71
13.383082 27.03108 -6.7297359 32
-2.3110039 38.445278 -6.5857091 65
16.332088 33.132774 -6.8995309 30
-1.394381 22.668093 -6.3822198 34
9.6342039 19.61384 -6.5012269 49
-3.1191821 50.420521 -6.8348708 35
20.851931 42.488976 -7.142344 15
-1.659411 26.229494 -6.4066339 43
11.146092 22.792267 -6.5954041 48
-2.016468 31.182304 -6.4723048 70
13.215633 27.120085 -6.7294688 37
-2.5484099 38.368191 -6.5760112 63
16.107399 33.201366 -6.8906651 32
37.907684 78.206696 -3.9217751 33
-1.5363131 22.651983 -6.3808432 30
9.5043087 19.660604 -6.4955692 59
-3.431565 50.336052 -6.827363 38
20.588491 42.627304 -7.1412668 15
-1.816517 26.240664 -6.4124861 35
10.995927 22.847847 -6.5899701 47
-2.2092941 31.125948 -6.4641032 68
13.02285 27.156452 -6.7164412 40
-2.776453 38.358013 -6.5778208 61
15.876714 33.226501 -6.874382 28
37.261902 78.121193 -3.9013441 47
-1.675386 22.598419 -6.3691621 27
9.3790464 19.716688 -6.4932642 46
-3.747366 50.308132 -6.8277931 38
20.253506 42.615383 -7.1153789 16
-1.979843 26.208715 -6.4082332 38
10.864176 22.921185 -6.591095 55
-2.4004741 31.055244 -6.453166 68
12.835776 27.20343 -6.7063708 36
-3.0177121 38.343693 -6.5793848 60
15.644501 33.276398 -6.8623061 30
36.442146 77.584038 -3.8596101 36
-1.813545 22.639109 -6.384088 24
9.2546453 19.774517 -6.491797 49
-4.0628119 50.276493 -6.8279891 39
19.95384 42.674416 -7.101738 15
-2.1434889 26.183699 -6.4059238 31
10.713137 22.974394 -6.5855198 53
-2.5864661 31.06147 -6.4582381 66
12.671833 27.274193 -6.70364 41
-7.5149002 89.868805 -5.8504481 38
-3.2535679 38.265125 -6.5701809 59
15.435257 33.374352 -6.8604469 33
36.946182 79.958862 -3.961735 49
-1.950693 22.56871 -6.3681359 22
9.1273994 19.807951 -6.483716 49
-4.3571072 50.205654 -6.8228569 35
19.700882 42.79343 -7.099678 17
-2.3069 26.15766 -6.403615 29
10.561858 23.026611 -6.579947 49
-2.776906 30.992455 -6.448133 65
12.490627 27.332291 -6.6968942 39
-8.039999 89.381676 -5.8239369 56
-3.4905 38.206394 -6.5646319 57
15.209659 33.436386 -6.8515 32
36.597412 80.529053 -3.974112 43
-2.0936379 22.568741 -6.3723021 25
9.0056992 19.871387 -6.484601 50
-4.6654029 50.101398 -6.8137002 33
19.403563 42.854412 -7.0870152 18
-2.460093 26.1224 -6.3990531 31
10.413378 23.084555 -6.576293 50
-6.6863632 70.471802 -7.0821061 11
-2.9695399 30.953117 -6.444448 64
12.305408 27.380772 -6.688097 40
-8.1666622 84.814072 -5.5314851 38
-3.7104299 38.115891 -6.5535998 56
14.991808 33.483242 -6.8409438 39
-2.2346611 22.547695 -6.37077 29
8.8769016 19.91913 -6.4806261 50
-4.9792862 50.062851 -6.8137431 30
19.127699 42.961514 -7.082303 19
-2.6228509 26.093252 -6.3964682 34
10.262069 23.114094 -6.5659399 46
-7.0735788 70.125031 -7.0528741 10
-3.1613221 30.908016 -6.4398131 62
12.137426 27.467276 -6.688868 42
-8.6913834 84.682983 -5.5283189 46
-3.94959 38.089378 -6.554081 53
14.77106 33.553894 -6.834373 33
-2.376272 22.53306 -6.3713021 31
8.7447176 19.95887 -6.4743271 51
-5.2875519 49.972107 -6.8069448 33
18.814548 42.982975 -7.0638142 19
-2.7866099 26.074978 -6.3968 35
10.116302 23.177349 -6.5643439 56
-3.3423769 30.867468 -6.43609 60
11.964768 27.51708 -6.6820822 42
-7.5492492 69.49205 -4.5409632 13
-4.18787 38.05505 -6.5534759 29
14.558479 33.642658 -6.831779 35
-2.5093651 22.513376 -6.3703771 33
8.6286974 20.016373 -6.4751019 51
-5.5876589 49.972595 -6.8125119 32
18.543242 43.056923 -7.0554972 16
-14.648732 130.59645 0.646267 11
-2.939867 26.045361 -6.3943119 44
9.9726353 23.245487 -6.5643892 51
-7.6907759 67.711243 -6.8224149 63
-3.5353889 30.838301 -6.4352608 59
11.769745 27.540483 -6.6680861 47
-7.9897871 69.478539 -4.5448651 210
-4.4113369 38.00988 -6.5509458 29
14.341789 33.689003 -6.8219919 39
-2.649894 22.489737 -6.3688478 37
8.5055199 20.076706 -6.4759831 51
-5.8999491 49.923084 -6.8118529 35
18.294386 43.224663 -7.061615 17
-15.511625 130.86143 0.64506 10
29.800205 70.478317 -0.74920303 29
-3.103101 26.023401 -6.3942289 43
9.8289089 23.290962 -6.5593472 55
-8.0644655 67.430466 -6.8003039 210
-3.7269261 30.797672 -6.432292 58
11.606346 27.637403 -6.6721759 44
-8.4519434 69.639305 -4.5603671 56
-4.6405091 37.903301 -6.5383778 33
14.106625 33.722969 -6.8088918 37
38.735962 92.692154 -4.4891582 29
-2.7917559 22.47753 -6.37081 38
8.3836527 20.140429 -6.478199 51
-6.2085352 49.845116 -6.8075762 34
17.964727 43.199982 -7.0366211 21
29.295664 70.517029 -0.74388403 31
-3.2614219 25.962576 -6.3848419 46
9.6818504 23.350994 -6.55762 50
-8.4945946 67.430954 -6.807169 210
-3.9017899 30.713406 -6.4201241 57
11.411436 27.658808 -6.658319 47
-4.8753028 37.848045 -6.5349078 32
13.904222 33.834694 -6.8117828 34
-12.661887 98.026932 -2.9707689 29
38.304272 93.302673 -4.5020061 35
-2.9208469 22.427986 -6.362113 38
8.2553844 20.1688 -6.470305 51
-6.499229 49.769253 -6.803472 36
17.676859 43.272633 -7.0278492 22
28.775433 70.512039 -0.73816597 39
-3.4269969 25.960611 -6.3901782 43
9.5258684 23.389088 -6.5500112 53
-8.934227 67.498047 -6.8210492 210
-4.0952768 30.692686 -6.4217958 57
11.244214 27.718912 -6.6551161 48
-5.1185632 37.857723 -6.542912 31
13.656775 33.835701 -6.7926912 30
-13.225862 97.564117 -2.9614511 11
37.766834 93.664398 -4.5029469 39
-3.0651231 22.434189 -6.3697901 34
8.129879 20.223707 -6.47019 53
-6.8069811 49.692188 -6.7998252 33
17.412977 43.359867 -7.022871 21
28.270983 70.468384 -0.73242003 41
-3.5880721 25.924322 -6.387321 40
9.3777933 23.446154 -6.547996 55
-9.454133 68.132286 -6.8926029 63
-4.284606 30.641768 -6.4174008 56
11.062757 27.771257 -6.6492872 46
-5.3292098 37.72818 -6.5267329 32
13.45417 33.912163 -6.7901139 33
27.863323 70.37471 -3.371083 63
-3.2040019 22.400379 -6.3663602 33
8.0019598 20.272642 -6.46842 55
-7.1286068 49.714954 -6.8101149 34
17.101004 43.369019 -7.0044489 17
27.762381 70.478897 -0.72698897 58
-3.73914 25.883841 -6.383317 41
9.2446289 23.516989 -6.551053 50
-4.4759469 30.606714 -6.4165769 56
10.872545 27.800579 -6.638248 43
-5.5681591 37.707516 -6.5299931 28
13.240534 33.995266 -6.788084 36
-12.286624 83.004387 -2.527611 36
27.377104 70.363739 -3.359215 210
-3.3464119 22.391371 -6.3702312 29
7.8814459 20.340635 -6.4729738 55
-7.4297071 49.594913 -6.8011131 40
16.801523 43.406769 -6.991003 20
27.247383 70.466721 -0.72138703 46
-3.8944581 25.811846 -6.3721228 41
9.0912914 23.560631 -6.5458059 55
-10.414346 68.861679 -6.9818912 55
-4.6553102 30.565294 -6.4142852 55
10.698185 27.869722 -6.6370068 45
-5.7977362 37.624828 -6.5227661 27
12.994708 33.994164 -6.7695541 36
-12.672912 82.051491 -2.502877 29
26.865259 70.353149 -3.346894 73
-3.4740019 22.337538 -6.361218 31
7.758317 20.381037 -6.469924 55
-7.719924 49.524601 -6.798749 28
16.53126 43.518841 -6.9898348 22
26.736132 70.457436 -0.71587598 48
-4.062912 25.82724 -6.3827548 35
8.9383736 23.604866 -6.5410051 55
-10.781769 68.382378 -6.9416399 13
-4.844542 30.518291 -6.4114389 55
10.518802 27.89608 -6.6268239 42
-6.0361052 37.600624 -6.5259299 29
12.754275 34.004257 -6.7536068 39
-12.101949 75.218719 -2.29848 35
-3.6181369 22.33906 -6.3685832 29
7.6308122 20.431269 -6.4693151 55
-8.007473 49.330536 -6.7800632 24
16.239214 43.52636 -6.973228 18
26.25762 70.45401 -0.71078199 49
-4.2245312 25.797684 -6.3825402 33
8.7785292 23.629995 -6.5311999 57
-11.238852 68.481697 -6.9603739 16
-5.0317779 30.460499 -6.40657 54
10.338076 27.947447 -6.6219039 48
27.901249 75.507858 -6.3902168 69
-6.2507472 37.51387 -6.5180602 25
12.539291 34.080791 -6.7511649 37
-12.567158 75.098396 -2.2989271 25
-3.757369 22.309618 -6.3673792 24
7.495625 20.460623 -6.4623652 55
-8.327199 49.338104 -6.7893448 18
15.963737 43.622955 -6.9701581 19
25.752884 70.449242 -0.70543498 49
-4.3711319 25.734421 -6.3738141 29
8.6359396 23.675604 -6.5282488 49
-11.675136 68.590668 -6.979907 15
-5.21314 30.370459 -6.395153 28
10.155754 27.993879 -6.6160979 47
27.264372 75.234924 -6.3485641 69
-6.4817719 37.447529 -6.5143971 24
12.315595 34.095806 -6.7377901 42
-13.123868 75.664131 -2.3202651 27
-3.887435 22.228191 -6.3515701 28
7.372159 20.521898 -6.4657569 55
-8.6026287 49.08849 -6.763484 19
15.66381 43.651272 -6.9564881 20
25.249657 70.442062 -0.700122 49
-4.534986 25.719193 -6.3776321 27
8.4861546 23.727001 -6.5262389 56
-12.075403 68.343529 -6.9639678 25
-5.3900309 30.320772 -6.3920288 26
9.9694223 28.028343 -6.6077552 44
26.768557 75.341225 -6.3392959 71
-6.7019081 37.322395 -6.500741 23
12.088735 34.137531 -6.7290421 45
-13.205105 73.390907 -2.254782 37
-4.0255742 22.239555 -6.3620839 29
7.25633 20.582529 -6.4700441 55
-8.8827629 48.975872 -6.756228 18
15.332816 43.588444 -6.9286671 19
24.756073 70.455627 -0.695072 49
-4.6919632 25.665403 -6.3721371 30
8.3417187 23.793579 -6.5286579 49
-12.512112 68.307434 -6.9697962 24
-5.5686598 30.222404 -6.3793001 25
9.8083048 28.102425 -6.6099162 45
26.392614 75.704163 -6.3528371 71
-6.9316659 37.327209 -6.5094981 30
11.875839 34.179577 -6.7215762 43
-13.603089 73.110832 -2.250248 32
-4.1617708 22.195379 -6.357388 28
7.1264329 20.626467 -6.468452 55
-9.1775236 48.851036 -6.748013 19
15.066053 43.65596 -6.9228802 20
24.283531 70.444595 -0.69011903 49
-4.8411951 25.621307 -6.3688331 30
8.1975279 23.83437 -6.5251169 51
-12.922743 68.261086 -6.9743128 22
-5.7622571 30.264206 -6.3959479 28
9.6249819 28.144323 -6.603868 41
22.11904 64.751907 -5.4186459 72
-7.1538229 37.219254 -6.4993 27
11.655944 34.239105 -6.7169061 42
-14.05819 73.003166 -2.2513361 33
37.897686 111.45122 -5.1979299 55
-4.2870531 22.13748 -6.3485351 38
6.9937301 20.638355 -6.457922 55
-9.4413424 48.662193 -6.7306662 22
14.780432 43.717144 -6.915411 21
23.775562 70.403671 -0.68464601 47
-5.0013981 25.586884 -6.3686218 31
8.0513372 23.896465 -6.526794 51
-13.432244 68.591469 -7.0182018 14
17.187984 51.073055 -6.1627312 210
-5.9408512 30.169275 -6.3844099 24
9.4328003 28.126394 -6.5849538 45
-13.034113 66.069145 -4.396194 27
21.701612 64.784111 -5.40732 210
-7.3727598 37.099216 -6.4872189 29
11.436498 34.299412 -6.7126679 44
-13.280712 66.705818 -2.06125 47
37.294231 111.98006 -5.205842 52
-4.4299049 22.129313 -6.3546381 35
6.868609 20.696028 -6.4611411 55
-9.7367086 48.551052 -6.7248068 25
14.49186 43.71693 -6.8994789 21
23.311331 70.404495 -0.67991298 49
-5.1557031 25.569445 -6.3724098 32
7.8945589 23.926958 -6.5201049 51
-13.665174 67.528389 -6.9197059 25
16.794855 50.961895 -6.133822 210
-6.1262579 30.111528 -6.3809719 29
9.2600985 28.197916 -6.5864072 49
-13.568053 66.570175 -4.4367099 52
21.242878 64.762917 -5.3909841 210
-7.582665 37.005451 -6.479445 32
11.214781 34.311661 -6.7001929 43
-13.53663 65.945335 -2.0416811 63
36.628807 112.33147 -5.2056608 49
-4.567687 22.095369 -6.3535962 38
6.735599 20.730038 -6.4572258 55
-10.016577 48.368233 -6.7092528 27
14.200721 43.757282 -6.8893371 22
22.808355 70.364006 -0.67455798 52
-5.3047419 25.48123 -6.3592691 32
7.7537522 23.977455 -6.519948 51
-14.015276 67.204544 -6.8964572 33
16.448765 50.92635 -6.1152029 210
-6.3117638 30.05545 -6.37813 28
9.0791674 28.244415 -6.5822768 52
-13.450645 63.938511 -4.2684002 44
20.784578 64.736374 -5.3744912 210
-7.8030472 36.900429 -6.4704328 29
10.990648 34.355423 -6.6932931 44
-13.877035 65.511192 -2.032465 56
-4.7053342 22.061117 -6.3527141 38
6.6148481 20.80224 -6.4654498 55
-10.295988 48.190628 -6.6946421 25
13.903331 43.775822 -6.87608 17
22.331297 70.397156 -0.66996199 54
-5.4743872 25.492323 -6.371161 34
7.5982499 24.010864 -6.514586 49
16.118189 50.996193 -6.1086841 210
-6.4873071 30.00499 -6.3762012 31
8.9021368 28.302849 -6.5811958 51
-14.03147 64.679489 -4.3252239 34
-8.0229006 36.796352 -6.4618158 34
10.76813 34.403221 -6.6874681 40
-14.291858 65.438644 -2.034528 56
37.093563 118.65591 -5.4656711 25
-4.8323841 22.015589 -6.3483081 36
6.4841962 20.818354 -6.457263 55
-10.576888 48.106461 -6.6926689 22
13.605066 43.788483 -6.862227 20
21.834024 70.360397 -0.66475201 51
-5.6186738 25.386139 -6.3539839 37
7.4530358 24.076864 -6.5183239 46
-14.807985 66.794525 -6.8761849 48
15.81718 51.160255 -6.113688 88
-6.670681 29.94109 -6.372169 29
8.7250252 28.325949 -6.5729671 55
-8.2275791 36.627869 -6.4420991 30
10.544095 34.445171 -6.6807928 41
-14.820758 65.872108 -2.0524449 58
36.544876 119.53289 -5.4893651 32
-4.9664769 21.966486 -6.3436141 32
6.3528671 20.857382 -6.4556718 55
-10.871595 48.006622 -6.6893382 23
13.312355 43.761189 -6.843307 22
21.355658 70.289742 -0.65954697 48
-5.7787929 25.353516 -6.3554468 34
7.2908568 24.087692 -6.5073948 50
-15.136126 66.300476 -6.8365998 32
15.712995 51.978359 -6.196877 86
-6.857357 29.892845 -6.3717122 26
8.539217 28.354774 -6.5655499 52
-23.563795 102.55589 -6.881649 56
-8.4515104 36.607521 -6.4480972 29
10.318473 34.480694 -6.673162 46
-5.1079421 21.950077 -6.3486118 35
6.2270741 20.914965 -6.460072 55
-11.163224 47.89537 -6.6846652 21
13.033595 43.832066 -6.8391848 23
20.888718 70.33876 -0.65524799 63
-5.930016 25.322515 -6.3570151 35
7.1480379 24.131369 -6.5063658 49
-15.384812 65.593498 -6.7745142 28
-7.0397358 29.826687 -6.3676801 28
8.3706732 28.441103 -6.5717068 49
-24.153055 102.17464 -6.8685989 20
-8.6598339 36.463085 -6.4330339 27
10.106318 34.516178 -6.6665959 42
-15.772522 66.3088 -2.0750201 56
-5.2518902 21.943178 -6.3566308 28
6.0942168 20.949133 -6.4574871 55
-11.441705 47.731533 -6.6728878 22
12.756734 43.908958 -6.8362808 20
20.408487 70.338104 -0.65053302 48
-6.0892339 25.285713 -6.357924 31
6.9941568 24.168484 -6.5030708 52
-15.858672 65.752724 -6.802732 21
-7.2081962 29.749678 -6.3609848 28
8.1851006 28.469805 -6.564805 46
-24.753233 101.85083 -6.8596358 18
-8.8751698 36.352264 -6.4241152 28
9.895833 34.60202 -6.6692271 42
-16.25391 66.47451 -2.084976 56
-5.37081 21.866026 -6.3439641 27
5.9680228 20.978697 -6.4544539 55
-11.732745 47.695316 -6.678565 33
12.467083 43.940617 -6.8266258 21
19.920477 70.303787 -0.645558 49
-6.2427549 25.225809 -6.3532672 27
6.8416352 24.210077 -6.501245 52
-16.308199 65.799889 -6.8197021 20
-7.3899488 29.683611 -6.3574309 27
8.0123806 28.504948 -6.5603971 51
-25.30439 101.49039 -6.8477001 17
-9.100132 36.282753 -6.4227309 30
9.6750517 34.652134 -6.6652331 57
-16.763577 66.738609 -2.0981491 58
-5.508605 21.833885 -6.3451519 34
5.8360391 21.015585 -6.4532161 55
-11.997732 47.48428 -6.6606278 27
12.196443 43.978943 -6.8190932 20
19.420866 70.124413 -0.63956702 49
-6.408802 25.216278 -6.3615541 26
6.6947489 24.272036 -6.505137 48
-16.679125 65.530388 -6.8041201 25
-7.567462 29.601984 -6.3507771 27
7.8307848 28.546209 -6.5569248 45
-25.895126 101.14799 -6.837925 15
-9.2837467 36.105488 -6.4018612 27
9.4678364 34.703747 -6.6625361 32
-5.6391649 21.805037 -6.3469472 36
5.7021899 21.045603 -6.4501281 55
-12.281521 47.352726 -6.654058 24
11.901648 43.987335 -6.8064251 23
-6.552979 25.157282 -6.3570032 25
6.54566 24.293001 -6.4989872 47
-17.005106 65.190323 -6.7806978 40
-7.7337942 29.521456 -6.3439622 27
7.6601448 28.588045 -6.5545511 50
-26.356424 100.46474 -6.8045278 13
-9.5038977 36.021725 -6.3983941 26
9.2290812 34.685432 -6.6459618 42
-5.7780418 21.776655 -6.3497272 29
5.5826082 21.099497 -6.4552679 55
-12.540802 47.198105 -6.643795 17
11.629093 44.014343 -6.7976961 22
-6.7002978 25.075871 -6.3476162 28
6.3931189 24.334505 -6.4979 46
-17.314569 64.709213 -6.7434521 42
-7.9150801 29.457211 -6.3414888 18
7.484355 28.650864 -6.5565319 52
-26.720177 99.304993 -6.7396722 11
-9.7173405 35.914364 -6.390965 23
9.0150957 34.758659 -6.6472182 44
-5.8994632 21.68372 -6.33391 29
5.4432721 21.108349 -6.4462142 55
-12.762283 46.843742 -6.606256 14
11.344015 44.054306 -6.7904968 22
18.063377 70.250389 -0.62741798 47
-6.8435369 25.015764 -6.343204 25
6.2455778 24.360216 -6.493515 47
-17.68005 64.538864 -6.738039 38
-8.0934162 29.382967 -6.3371 19
7.29425 28.65827 -6.5461049 50
-27.34091 99.125412 -6.7414699 11
-9.9189978 35.8153 -6.3845711 21
8.8035212 34.791172 -6.6416402 43
-6.0417571 21.668346 -6.3409829 29
5.3132162 21.152796 -6.4482951 55
-13.022591 46.641689 -6.590354 14
11.068339 44.130089 -6.7891002 23
17.592455 70.24601 -0.62295401 48
-7.0036111 24.983084 -6.3466229 31
6.0887618 24.384422 -6.4883318 51
-17.992361 64.095749 -6.7050562 34
-8.2663012 29.290531 -6.3290138 21
7.1179709 28.719393 -6.5482178 47
-27.819569 98.443443 -6.7092972 12
-10.112257 35.640976 -6.3656168 25
8.5782108 34.819256 -6.634799 45
-6.1711202 21.635223 -6.342463 30
5.1853518 21.206812 -6.4535332 55
-13.319657 46.573864 -6.5936532 19
10.762598 44.083061 -6.7691131 24
17.124939 70.249313 -0.61860198 45
-7.1508198 24.905066 -6.3387671 27
5.9320221 24.408171 -6.4832988 45
-18.35248 63.834488 -6.6912642 38
-8.4276676 29.198347 -6.320519 24
6.9448071 28.750292 -6.5443358 49
-28.506454 98.633713 -6.7360029 13
-10.310819 35.490078 -6.3510342 26
8.357461 34.864933 -6.631587 40
-6.305943 21.592623 -6.3420668 38
5.0525851 21.208529 -6.443717 55
-13.586954 46.463768 -6.590487 19
10.506393 44.169601 -6.7706199 23
-7.3048701 24.851851 -6.3374548 27
5.7773118 24.439749 -6.4806132 53
-18.729933 63.638866 -6.6845722 40
-8.5972614 29.098455 -6.3112378 28
6.76266 28.78754 -6.5415182 47
-28.779753 97.283524 -6.658453 12
-10.541955 35.452675 -6.3569918 24
8.1410522 34.928848 -6.6321082 42
-6.4356289 21.532972 -6.3369021 36
4.919301 21.240164 -6.442647 55
-13.827479 46.206573 -6.5673862 21
10.224688 44.217552 -6.7657819 22
-7.4543009 24.81501 -6.3398681 38
5.6249809 24.4814 -6.4808569 49
-19.072044 63.329422 -6.666131 49
-8.7752295 29.028339 -6.3086381 30
6.580193 28.823076 -6.5385761 45
-29.507767 97.488434 -6.68749 13
-10.725246 35.300949 -6.341959 28
7.9260578 34.943119 -6.6240978 43
-6.5704212 21.490883 -6.3371429 37
4.7789021 21.240225 -6.432271 55
-14.087914 46.022034 -6.5547948 20
9.9323692 44.217304 -6.7538619 24
-7.5994821 24.733223 -6.3317232 42
5.4804139 24.51796 -6.4805851 43
-19.414038 63.106331 -6.6561751 47
-8.9411325 28.919872 -6.2979231 32
6.3955641 28.848518 -6.5336132 48
-29.946777 96.742424 -6.651536 16
-10.929828 35.178123 -6.3330278 29
7.703938 34.981285 -6.6202598 42
-6.6947532 21.441647 -6.3347988 44
4.6509428 21.295429 -6.4388542 57
-14.34883 45.843254 -6.5432281 22
9.6644268 44.325054 -6.7587142 22
-7.7565751 24.690845 -6.3339038 37
5.3265629 24.553326 -6.4796619 50
-19.833378 63.056915 -6.6655869 54
-9.11479 28.873278 -6.3001761 36
6.225409 28.891285 -6.533412 46
-30.498608 96.494293 -6.6491132 14
-11.137135 35.066231 -6.3262811 29
7.4863548 35.040051 -6.620584 39
-6.828608 21.39686 -6.334723 41
4.5181379 21.292709 -6.4287219 57
-14.619156 45.752731 -6.5436959 20
9.4048929 44.398926 -6.7592759 21
-7.9048991 24.62088 -6.3292518 36
5.1667609 24.56052 -6.4715719 47
-20.182211 62.784931 -6.651721 50
-9.2815351 28.770523 -6.291131 34
6.0428858 28.925655 -6.5309858 46
-30.864161 95.557297 -6.6002121 14
-11.344359 34.955868 -6.3200288 27
7.2589741 35.05225 -6.6123819 43
-6.9572811 21.33626 -6.3302059 39
4.3855648 21.327002 -6.4294758 57
-14.854218 45.50032 -6.5220008 22
9.0895567 44.280861 -6.7302928 24
-8.0538282 24.582592 -6.3322258 39
5.0131969 24.596695 -6.471386 52
-20.537142 62.537651 -6.6406722 51
12.308511 60.498253 -7.0015202 10
-9.4423218 28.651562 -6.2787418 31
5.8600631 28.958311 -6.5284362 44
-31.220617 94.623985 -6.5515838 11
-11.543558 34.863674 -6.3165078 28
7.058506 35.132847 -6.617908 47
27.740633 138.57651 -6.100863 9
-7.0922208 21.295185 -6.3317232 36
4.2564611 21.340265 -6.4246612 57
-15.089606 45.308228 -6.5083051 23
8.8429842 44.416161 -6.7407031 25
-8.1961441 24.495697 -6.3236632 43
4.8685269 24.632978 -6.4720011 54
-20.887836 62.354836 -6.6358271 46
11.884108 60.239807 -6.9605718 22
-9.610302 28.589449 -6.2782512 31
5.6909289 29.006901 -6.5302649 45
-31.876261 94.718414 -6.5733972 17
-11.745873 34.741623 -6.308567 26
6.8276758 35.12534 -6.6065321 43
26.83592 138.31656 -6.0760908 13
-7.2278461 21.280348 -6.340528 27
4.1255531 21.383484 -6.4285932 58
-15.336168 45.101307 -6.4934788 24
8.5536118 44.41827 -6.7305579 22
-8.3444481 24.455681 -6.3266478 39
4.7066798 24.626568 -6.4611349 61
-21.260859 62.168701 -6.6317172 49
11.449902 60.022472 -6.9241142 38
-9.7813148 28.503939 -6.273622 32
5.502542 29.010349 -6.521656 50
-32.383705 94.262856 -6.5581989 12
-11.930326 34.608936 -6.2980919 28
6.6175752 35.157036 -6.6033401 43
-7.3519378 21.207191 -6.3329778 39
3.9869499 21.386639 -6.4207382 58
-15.598824 44.945221 -6.4861732 24
8.2674103 44.433804 -6.7227402 24
12.776981 68.804359 -0.569785 55
-8.4808455 24.353676 -6.3146009 42
4.5595918 24.649366 -6.458694 47
-21.627224 62.03521 -6.632576 60
11.050649 59.857132 -6.8946362 62
12.421753 67.547989 1.8396471 19
-9.9546671 28.426071 -6.2709041 34
5.3207288 29.047468 -6.520885 50
-32.733875 93.368797 -6.512589 12
-12.124881 34.468868 -6.2872672 28
6.3942342 35.185188 -6.5992069 45
12.27997 67.706635 -2.9612379 48
-7.4791579 21.143948 -6.3286109 39
3.8589201 21.446972 -6.4303002 58
-15.853354 44.768497 -6.4761 21
7.996314 44.530815 -6.7275171 24
12.182773 67.981262 -0.55912399 63
-8.636323 24.307302 -6.3172059 38
4.4046812 24.677834 -6.4574952 47
-21.967678 61.760628 -6.6194601 55
10.660101 59.845451 -6.8825688 47
12.030006 67.672867 1.844081 27
-10.114835 28.34313 -6.2664719 31
5.1355801 29.065981 -6.5162001 49
-33.368851 93.29821 -6.5245819 16
-12.308396 34.300549 -6.271472 26
6.1738901 35.229553 -6.598382 39
11.825701 67.61882 -2.9509039 50
-7.599462 21.085224 -6.3249969 42
3.727304 21.444866 -6.4218459 58
-16.071381 44.542393 -6.4581909 24
7.6973448 44.47031 -6.7087798 23
11.592942 67.115959 -0.54824799 48
-8.7892132 24.253481 -6.31813 39
4.2477641 24.6947 -6.4535222 47
10.281366 59.896648 -6.8780279 50
11.602275 67.733719 1.8468961 44
-10.268142 28.211493 -6.252286 32
4.965848 29.112589 -6.5185428 45
-12.508335 34.180637 -6.2647181 30
5.9517002 35.263409 -6.5958519 38
11.369137 67.504929 -2.9395881 53
-7.7434101 21.068666 -6.335113 44
3.5937519 21.475409 -6.422965 58
-16.328636 44.379944 -6.4505692 21
7.4556088 44.648689 -6.7268591 21
11.102888 66.633965 -0.54081798 50
-8.9429789 24.227987 -6.32585 37
4.0890479 24.699932 -6.446775 47
-22.64222 61.209885 -6.5936298 82
9.9274731 60.097172 -6.890892 50
11.170158 67.767014 1.849025 210
-10.449931 28.15918 -6.2558999 33
4.7827892 29.142954 -6.5170231 44
-34.505264 92.881096 -6.5291238 14
-12.685687 34.038036 -6.2531409 27
5.7342439 35.248344 -6.584919 36
11.093981 68.496284 -2.9764569 53
-7.8749838 21.017862 -6.3352032 47
3.454958 21.47401 -6.4147921 58
-16.589367 44.229031 -6.44484 23
7.159544 44.598824 -6.7102861 21
10.757209 67.159485 -0.54139102 52
-9.0701227 24.105122 -6.3092098 35
3.940932 24.714523 -6.4431682 47
-22.936357 60.89209 -6.5754628 82
9.595973 60.314022 -6.9063988 50
10.763113 67.955605 1.855459 48
-10.61706 28.067604 -6.2510319 33
4.5933952 29.133169 -6.506794 47
-35.170929 92.881027 -6.5469608 17
-12.886124 33.922966 -6.2476778 28
5.5131531 35.286827 -6.5837798 36
10.600791 68.005798 -2.9493599 53
-7.986311 20.914085 -6.3195362 45
3.3192351 21.490562 -6.4122472 57
-16.798679 43.945366 -6.419939 22
6.875258 44.617458 -6.7043142 21
10.360058 67.38858 -0.53956801 52
-9.2095242 24.016689 -6.3017702 39
3.7814951 24.712175 -6.4349689 47
-23.250334 60.569202 -6.5578499 82
9.2694206 60.717663 -6.9429359 48
10.499796 68.938301 1.883585 46
-10.771832 27.973993 -6.2450461 32
4.4150138 29.192911 -6.5123568 36
-35.529182 92.076042 -6.5082531 18
11.750213 77.878494 -6.129981 48
-13.076237 33.78249 -6.2377391 26
5.2924008 35.327915 -6.5833869 36
10.190612 68.186951 -2.9512081 51
-8.0987682 20.836716 -6.3111472 58
3.1938369 21.524622 -6.4155731 57
-17.056578 43.838276 -6.420084 21
6.5931358 44.648617 -6.7004991 23
-9.3684692 23.979406 -6.3079948 36
3.6330321 24.782385 -6.4459162 47
-23.538031 60.185635 -6.5338092 82
9.8313589 67.391495 1.842724 46
-10.937901 27.881584 -6.240417 32
4.2338481 29.164484 -6.4989262 40
-36.138149 92.024536 -6.5219541 17
11.257515 77.737244 -6.1100659 17
-13.268483 33.649563 -6.2293901 25
5.0692248 35.352787 -6.5802369 33
9.7983837 68.504135 -2.959034 51
-8.2247086 20.773245 -6.308064 54
3.0558889 21.525648 -6.4089012 57
-17.294407 43.636185 -6.4074569 21
6.3407898 44.776768 -6.711946 17
9.736125 68.926918 -0.544689 48
-9.49827 23.868103 -6.2949772 33
3.4731891 24.775764 -6.43713 46
-23.837767 59.840862 -6.5141129 82
9.3996325 67.393845 1.844254 48
-11.113874 27.814827 -6.2417641 34
4.0485158 29.176077 -6.494266 42
-36.471962 91.186424 -6.4810901 16
-13.439924 33.500427 -6.217309 27
4.8493862 35.401371 -6.5817609 38
9.3187342 68.205452 -2.9403901 51
-8.3598576 20.733038 -6.312295 54
2.921979 21.55475 -6.4108472 57
-17.527327 43.425301 -6.3937159 17
6.052999 44.768932 -6.702805 18
9.2016134 68.235954 -0.53561503 47
-9.6430988 23.81962 -6.297822 36
3.3271251 24.803535 -6.4379139 46
-24.081398 59.424324 -6.4857202 82
-11.271499 27.702862 -6.2331901 37
3.865309 29.202374 -6.4931412 43
-36.760517 90.25898 -6.4338679 20
10.247587 77.628723 -6.0837131 48
-13.619954 33.341412 -6.2044811 26
4.633348 35.384632 -6.571805 40
8.9907131 68.848274 -2.9627509 53
-8.47855 20.652308 -6.3044262 54
2.784153 21.554592 -6.4043469 57
-17.752987 43.200333 -6.3780689 20
5.7711849 44.80294 -6.7002072 21
-9.8014011 23.779984 -6.3041902 35
3.169816 24.812992 -6.4338169 46
-24.426872 59.205376 -6.4800429 81
-11.412623 27.607012 -6.226563 31
3.7026179 29.227179 -6.4926758 43
-36.913456 89.20504 -6.3754592 13
9.854023 78.002594 -6.105392 18
-13.795277 33.239098 -6.2005038 31
4.431459 35.376492 -6.5640759 40
8.6396933 69.363571 -2.9796529 56
-8.5971937 20.612862 -6.3074918 54
2.663898 21.57119 -6.4037619 57
-17.98588 43.081093 -6.376245 22
5.518136 44.812271 -6.6950021 26
-9.9192791 23.689571 -6.295423 34
3.0286729 24.809734 -6.4273729 46
-24.668554 58.856636 -6.4582701 81
-11.585574 27.534088 -6.2271948 37
3.520925 29.266642 -6.4949608 43
-37.522854 89.089203 -6.3862991 18
-13.977501 33.089386 -6.1897612 34
4.212533 35.432549 -6.5677319 42
9.0458288 76.313675 -3.2725379 56
-8.7255926 20.556211 -6.307426 54
2.5262489 21.569901 -6.3974228 57
-18.21006 42.85862 -6.3613071 21
5.2348881 44.832546 -6.6908669 27
-10.054688 23.595711 -6.2878332 40
2.871587 24.818388 -6.4235649 46
-25.011034 58.637558 -6.4529419 81
8.7132912 75.770012 2.080451 47
-11.741257 27.447313 -6.223958 33
3.336096 29.280527 -6.491827 48
-38.058781 88.797806 -6.3848219 21
-14.178913 32.986443 -6.1879721 30
3.9872789 35.435715 -6.5618448 46
8.5381174 76.118996 -3.258343 55
-8.8500423 20.510145 -6.3098779 39
2.401098 21.610531 -6.4040799 57
-18.425781 42.661163 -6.3492289 25
4.9698758 44.87294 -6.6903801 22
-10.194321 23.512638 -6.2833309 36
2.7141449 24.822701 -6.4188962 48
-25.347342 58.40638 -6.4464951 81
8.3236341 76.620331 2.1058149 50
-11.901286 27.34498 -6.2183719 36
3.1629901 29.306349 -6.4919219 47
-38.383236 88.107147 -6.353683 18
-14.364545 32.847889 -6.1797152 33
3.7654359 35.468388 -6.5616889 44
10.216015 96.5504 -4.1256928 55
-8.9614458 20.414745 -6.2983451 36
2.265007 21.622696 -6.4022269 57
-18.67123 42.493946 -6.3428559 20
4.6838298 44.864922 -6.6825571 25
-10.336589 23.458364 -6.2857609 32
2.559556 24.853148 -6.4212408 49
-25.680792 58.171154 -6.4398112 81
7.8862691 77.103401 2.1211951 51
-12.05701 27.233854 -6.2109909 36
2.975352 29.291784 -6.4829988 49
-39.000431 88.009491 -6.366581 18
-14.532658 32.702312 -6.1693158 34
3.552916 35.470322 -6.5564332 42
9.6700821 97.225075 -4.1474209 52
-9.0908508 20.360977 -6.2998729 39
2.128638 21.631765 -6.3997149 57
-18.890656 42.270176 -6.3282242 20
4.4051552 44.927227 -6.6854782 26
-10.468817 23.359571 -6.277483 37
2.4110169 24.857449 -6.4173708 49
-25.997555 57.955372 -6.4343948 81
8.1497879 84.949547 2.339448 51
-12.223582 27.148003 -6.20959 37
2.7919281 29.317034 -6.483151 46
-39.353188 87.320152 -6.336863 19
-14.720658 32.57233 -6.1630468 34
3.329632 35.488228 -6.5540581 41
-9.206398 20.276577 -6.2921519 41
1.993275 21.651169 -6.4005151 57
-19.13419 42.102936 -6.3222389 21
4.119318 44.916225 -6.6777601 26
-10.600684 23.261082 -6.2694831 34
2.2546561 24.87067 -6.4157629 49
-26.374182 57.819374 -6.439167 81
5.5650711 61.626434 -6.9664741 24
7.6571832 85.125778 2.3466451 50
-12.378201 27.061293 -6.2071919 35
2.6065819 29.321754 -6.4790239 45
-14.893858 32.411369 -6.1511011 32
3.104907 35.489227 -6.5488262 41
-9.3321781 20.233772 -6.2965288 38
1.86488 21.664019 -6.3998842 57
-19.36587 41.950039 -6.3175378 22
3.8383291 44.956539 -6.6779408 29
7.8324428 92.117058 -0.68638903 15
-10.747039 23.194904 -6.2704148 37
2.0976591 24.876198 -6.4124279 50
-26.728523 57.634357 -6.4387398 81
5.1764641 61.644833 -6.9619079 27
7.130857 85.276039 2.353353 50
-12.541632 26.969318 -6.2048349 33
2.4336021 29.349531 -6.480516 43
-40.276283 86.530449 -6.319428 56
-15.068306 32.25528 -6.1402488 34
2.8849189 35.545708 -6.5540919 37
-9.4614496 20.179695 -6.298697 39
1.7284811 21.672243 -6.3978748 57
-19.591511 41.747509 -6.3066292 23
3.573298 45.001347 -6.6793551 25
7.2745948 92.021759 -0.68143702 20
-10.879822 23.120802 -6.2683802 37
1.939486 24.865417 -6.4051518 50
-27.097776 57.481518 -6.442163 82
8.432127 109.08739 3.0138581 49
-12.699492 26.86599 -6.2000861 34
2.2486911 29.358303 -6.4777889 39
-40.684082 85.99015 -6.3008938 20
-15.248741 32.142731 -6.1368151 35
2.6706309 35.518234 -6.5444059 37
-9.573657 20.089638 -6.2898612 46
1.591476 21.671762 -6.3935528 57
-19.830351 41.575203 -6.300477 24
3.2902911 45.020359 -6.6768899 22
-11.025546 23.053381 -6.269454 34
1.7936341 24.900579 -6.4101939 50
-27.399321 57.238068 -6.4345021 82
7.7253051 108.83891 3.0104761 46
-12.854813 26.758121 -6.1944981 36
2.0624001 29.346458 -6.470778 35
-41.13913 85.557228 -6.2903681 22
-15.410209 31.962929 -6.1217752 28
2.4468391 35.525986 -6.5412002 29
1.455222 21.68051 -6.392211 57
-20.02327 41.309673 -6.280355 22
3.010968 45.094231 -6.6828241 23
-11.142246 22.926184 -6.2544708 35
1.637127 24.911087 -6.4088979 50
-27.732843 57.012218 -6.4301791 82
7.046052 108.37133 3.0009141 22
-13.002996 26.660099 -6.1903038 34
1.8782459 29.363131 -6.470315 34
-41.535664 85.010063 -6.2715778 24
-15.604567 31.85289 -6.1202822 29
2.2261131 35.581215 -6.5469952 31
1.325633 21.673893 -6.3867941 57
-20.238768 41.130611 -6.2723918 21
2.725354 45.075527 -6.6753049 22
8.2163839 136.68546 -0.99251598 13
-11.289531 22.862722 -6.257081 32
1.478738 24.889978 -6.3997288 50
-28.029228 56.712841 -6.4177542 82
6.3830471 108.72085 3.014276 36
-13.149296 26.535589 -6.1812429 39
1.705609 29.402031 -6.475214 32
-42.041939 84.767227 -6.2742038 20
-15.771652 31.688429 -6.1085262 28
2.0023291 35.591343 -6.5447478 32
1.182701 21.697676 -6.3901949 57
-20.535435 41.044098 -6.281075 25
2.442728 45.103638 -6.6749902 21
7.3612189 136.80522 -0.98694301 22
-11.425231 22.775934 -6.2535481 33
1.323965 24.929712 -6.4064598 50
-28.308298 56.38282 -6.4020109 82
-13.33989 26.477356 -6.1889858 38
1.5098521 29.398682 -6.4706478 40
-42.416756 84.116783 -6.249248 19
-15.948751 31.545799 -6.1011519 25
1.779542 35.620785 -6.5463128 35
1.045278 21.682476 -6.3825688 57
-20.811762 40.951347 -6.28795 52
2.160105 45.135185 -6.6754489 21
6.518414 137.20465 -0.983419 20
-11.557961 22.683781 -6.2487569 33
1.166703 24.924755 -6.4019589 50
-28.550434 55.985069 -6.3786879 82
-13.478167 26.361338 -6.181201 36
1.334008 29.3771 -6.4627209 44
-42.868221 83.771866 -6.2446518 18
-16.160023 31.471025 -6.1071339 26
1.293988 29.637178 -5.4436769 56
0.91624999 21.680151 -6.3791451 59
-20.784552 40.303852 -6.2084608 210
-11.683671 22.597979 -6.2447681 36
1.009879 24.926781 -6.3995099 50
-28.820078 55.647106 -6.3622842 82
2.4836011 61.836185 -6.9451442 43
-13.608835 26.209309 -6.1662698 37
1.1490771 29.376616 -6.4595051 48
-43.2691 83.261047 -6.2290859 21
-16.331215 31.345259 -6.1023021 24
1.103573 29.259283 -5.371685 210
-7.7022972 14.72062 -4.698482 10
0.77984101 21.680716 -6.3766589 59
-21.020067 40.139408 -6.2045221 210
1.060647 29.776875 -4.3990812 210
-11.831171 22.535063 -6.2484989 33
0.86177599 24.927467 -6.3971171 50
-29.146713 55.469261 -6.363122 82
2.1139359 61.771526 -6.9337258 63
-13.789488 26.154095 -6.174334 37
0.96397901 29.368105 -6.454783 55
-43.534832 82.50135 -6.1949501 19
-16.518047 31.223518 -6.0996141 26
0.91866899 29.23247 -5.3642421 210
-7.7906241 14.676744 -4.6995931 10
0.65070897 21.669542 -6.3711038 61
-21.287506 40.069717 -6.214273 210
0.872401 29.744326 -4.3920221 210
-11.95691 22.430981 -6.241045 40
0.70499998 24.927574 -6.3946729 52
-29.460285 55.220604 -6.3573041 82
-13.934907 26.053972 -6.1708579 36
0.78978801 29.376976 -6.4542789 61
-43.922581 82.052773 -6.1829538 22
-16.684069 31.063568 -6.089653 23
0.73460799 29.222923 -5.3601871 210
-7.8820748 14.62637 -4.699698 11
0.51508498 21.696012 -6.376729 61
-21.578732 40.009121 -6.2269559 210
0.69517899 29.719028 -4.3863258 210
-12.087586 22.355528 -6.2405581 36
0.54863101 24.943756 -6.3966079 53
-29.804382 55.030201 -6.358417 82
1.33887 61.854408 -6.93505 50
-14.091688 25.953665 -6.1687431 36
0.60496402 29.370243 -6.4504528 47
-44.228104 81.390282 -6.156199 20
-16.890688 31.005465 -6.098681 23
0.56059098 29.195879 -5.353251 210
0.37843499 21.680489 -6.370265 59
-21.819002 39.853226 -6.2250838 63
0.50803298 29.699242 -4.3815041 210
-12.220614 22.266026 -6.2375841 32
0.40024301 24.924145 -6.3897228 53
-30.154194 54.895664 -6.3649492 81
0.96955299 61.718403 -6.9164329 18
-14.239455 25.837349 -6.163033 38
0.42071301 29.394354 -6.45366 47
-44.619102 80.894104 -6.142097 22
-17.080061 30.889494 -6.0977888 20
0.37727499 29.209436 -5.3538518 210
0.25027701 21.72595 -6.3820581 59
-21.848743 39.351372 -6.1679411 63
0.32128301 29.689287 -4.3783102 210
-12.350226 22.170765 -6.2332129 37
0.244041 24.967888 -6.3992171 53
-30.316771 54.37912 -6.3286152 80
0.57858503 61.387611 -6.8760848 16
-14.381539 25.732738 -6.1590781 36
0.246097 29.374859 -6.4476442 47
-44.945015 80.353767 -6.1234241 18
-17.22287 30.690798 -6.0807371 22
0.193719 29.20801 -5.351922 210
0.93756902 149.21567 -6.2360249 19
0.113716 21.717827 -6.378263 59
-22.037106 39.10957 -6.1527882 210
0.14530601 29.733171 -4.3833122 58
-12.482337 22.09844 -6.2342558 32
0.087026 24.93062 -6.3882031 53
-30.534046 53.96875 -6.3046508 79
0.19440299 61.879387 -6.9281468 54
-14.549085 25.652706 -6.1624761 36
0.061522 29.373823 -6.4458308 47
-45.237667 79.697472 -6.0972819 21
-17.379202 30.543264 -6.07271 23
0.020397 29.214632 -5.3517561 210
0.052108999 149.26039 -6.2316151 28
-0.022719 21.696476 -6.3708391 59
-22.32324 39.041759 -6.1652341 210
-0.041499 29.722675 -4.3803802 60
-12.611802 22.003637 -6.230443 29
-0.060913999 24.929834 -6.3868551 53
-30.86935 53.813782 -6.309341 78
-14.690114 25.546896 -6.1586409 34
-0.12281 29.318975 -6.4324689 47
-45.741241 79.418114 -6.100112 22
-17.558546 30.412296 -6.0694141 24
-0.163341 29.246119 -5.3562708 63
-0.151474 21.696793 -6.3700771 59
-22.608273 39.00132 -6.1810341 70
-0.23010799 29.963779 -4.4146948 63
-12.741142 21.909063 -6.2269111 32
-0.217499 24.923002 -6.3841381 53
-31.085093 53.409542 -6.2863121 78
-0.56446201 62.193405 -6.9582038 17
-14.842455 25.440578 -6.156167 36
-0.29689601 29.3283 -6.4334989 47
-46.143833 79.029037 -6.0933571 20
-17.768463 30.33412 -6.0769048 26
-29.519119 50.354389 -1.844606 63
-0.29538801 21.696777 -6.3693829 59
-22.72739 38.614273 -6.144681 71
-0.431283 30.88644 -4.549562 63
-2.015986 140.85367 -0.9479 210
-12.869792 21.813736 -6.2233782 30
-0.37377 24.89986 -6.3775001 53
-26.417313 44.740501 -5.2867351 210
-0.97141701 61.83741 -6.9160638 63
-14.994089 25.313274 -6.1501312 41
-0.49079299 29.289364 -6.4240942 47
-46.61768 78.638138 -6.0893869 21
-17.935642 30.183064 -6.0700312 21
-29.705318 49.949997 -1.838071 210
-0.43171099 21.694742 -6.3683949 59
-22.824533 38.227814 -6.1070471 71
-0.91384703 45.131512 -6.6465559 63
-2.8999381 140.78906 -0.94148499 210
-13.013234 21.743532 -6.2272568 28
-0.52981901 24.878578 -6.371593 53
-26.85327 44.833027 -5.3188491 80
-15.147165 25.20912 -6.1486239 36
-0.67484498 29.28713 -6.4230509 47
-46.925484 78.035416 -6.0677562 20
-18.090277 30.01228 -6.0593548 20
-0.86756003 35.49839 -6.4983411 63
-29.78891 49.381645 -1.8254761 58
-0.56748998 21.671616 -6.3614702 59
-19.853804 32.782532 -5.2579679 210
-1.199726 45.212669 -6.657474 60
-30.153021 49.749363 0.18927 210
-3.7837269 140.7401 -0.935229 210
-13.154844 21.669989 -6.2304468 23
-0.68589699 24.866529 -6.3683071 53
-26.754797 44.03854 -5.2457638 210
-1.729967 61.933891 -6.923408 47
-15.317115 25.132904 -6.1541848 33
-0.85868698 29.276873 -6.420505 47
-47.238522 77.449913 -6.0475121 19
-18.299189 29.931879 -6.0671501 22
-1.0908591 35.501167 -6.4983692 62
-30.004124 49.039101 -1.821211 61
-0.703417 21.660603 -6.3583541 59
-20.072079 32.677799 -5.2622981 210
-1.483085 45.183056 -6.6523461 58
-30.13331 49.019333 0.185745 210
-4.668838 140.74052 -0.92935401 88
-13.279896 21.569292 -6.2260671 25
-0.843036 24.888676 -6.374032 53
-27.348961 44.385647 -5.3088231 93
-2.103631 61.470566 -6.8702631 15
-15.465906 25.041439 -6.1549082 33
-1.031566 29.247505 -6.4140201 47
-47.51585 76.874695 -6.0266962 23
-18.450607 29.757786 -6.0561728 23
-1.312222 35.448391 -6.4884901 61
-29.969538 48.298271 -1.802106 210
-11.70898 18.825909 -6.277257 20
-0.83169198 21.649574 -6.3554592 61
-20.149311 32.371227 -5.233036 210
-1.768953 45.224106 -6.6578908 56
-30.341478 48.669861 0.183678 58
-5.5531831 140.71208 -0.923338 104
-13.390058 21.445229 -6.2151222 24
-0.99824703 24.854206 -6.3655119 53
-27.583057 44.142128 -5.3016691 92
-2.4919751 61.509377 -6.8735271 15
-15.604284 24.913986 -6.1483579 36
-1.2154191 29.243015 -6.413238 47
-47.800983 76.260429 -6.0042782 22
-18.631907 29.63283 -6.0553808 22
-1.533862 35.414928 -6.4824071 60
-30.219051 48.024212 -1.800379 210
-11.81309 18.72986 -6.2704911 26
-0.96764201 21.642555 -6.3540092 63
-20.242548 32.070099 -5.2058101 210
-2.0344009 45.148804 -6.6465788 54
-30.635725 48.498405 0.182331 61
-6.437398 140.67902 -0.91734302 210
-13.542124 21.388453 -6.2239099 20
-1.154694 24.853998 -6.3660212 54
-27.928743 44.076649 -5.3161292 91
-2.896594 61.881248 -6.9142809 62
-15.773343 24.835648 -6.1541629 34
-1.397422 29.199064 -6.404058 47
-48.407047 76.159737 -6.0224981 27
-18.816711 29.513584 -6.0559888 23
-1.755651 35.390522 -6.47824 60
-30.773399 48.230228 -1.816779 68
-11.941384 18.672226 -6.2768259 26
-1.10316 21.62731 -6.3503971 63
-20.507414 32.041908 -5.2230458 210
-2.316149 45.098362 -6.639174 53
-31.317837 48.895103 0.183075 61
-7.2756281 140.70685 -0.91211098 90
-13.674253 21.316204 -6.227057 21
-1.309589 24.822687 -6.3588171 54
-28.272173 44.004646 -5.330122 90
-3.2523241 61.240032 -6.8421178 47
-15.911912 24.709396 -6.1483331 30
-1.5808409 29.189417 -6.4026561 47
-48.67709 75.532066 -5.9992428 24
-18.982351 29.387217 -6.0539489 22
-1.9780279 35.379646 -6.4768109 59
-32.119846 49.649731 -1.879329 70
-12.049504 18.583002 -6.2727962 23
-1.239203 21.623039 -6.3502598 65
-20.704426 31.906401 -5.2230611 86
-2.598778 45.071053 -6.6354418 52
-31.412218 48.370583 0.180371 60
-13.792935 21.206833 -6.2210078 18
-1.456682 24.81134 -6.356915 56
-28.531439 43.834007 -5.331151 89
-3.6665161 61.714531 -6.8948898 19
-16.075542 24.622244 -6.1524611 29
-1.7622221 29.146008 -6.394105 47
-49.082829 75.120842 -5.9932699 24
-19.156729 29.252262 -6.0517602 19
-2.187243 35.356045 -6.473258 59
-31.998829 48.824913 -1.8566771 70
-12.165625 18.506315 -6.2732248 21
-1.375023 21.614582 -6.3491468 65
-24.32935 36.981609 -6.0799398 89
-2.8834131 45.077259 -6.6369109 51
-31.278246 47.508095 0.17642801 59
-13.891364 21.067364 -6.2062831 18
-1.612491 24.800844 -6.355535 58
-28.891594 43.783146 -5.3483019 89
-4.0352259 61.730782 -6.8967338 57
-16.225409 24.513922 -6.1515498 31
-1.946595 29.153522 -6.3969808 47
-19.316429 29.095594 -6.0452738 18
-2.4073269 35.311977 -6.4662561 58
-12.303453 18.462212 -6.2849951 18
-1.5118819 21.620941 -6.3526411 65
-24.453911 36.667099 -6.0545359 87
-3.1616449 44.987984 -6.624588 50
-14.052774 21.023521 -6.219964 19
-1.768309 24.790537 -6.3544579 60
-29.27397 43.761974 -5.369451 89
-4.3968091 61.338688 -6.8532271 16
-16.404587 24.449455 -6.1619229 30
-2.1277919 29.114162 -6.3898268 47
-19.463634 28.921314 -6.0352888 18
-2.6315689 35.328621 -6.4706302 58
-30.320671 45.020016 -1.729129 210
-12.359716 18.310246 -6.2587209 18
-1.645499 21.58214 -6.3431182 65
-24.462955 36.186031 -6.0015168 84
-3.448786 45.026474 -6.6313462 49
-31.882008 47.124962 0.173559 210
-14.174285 20.9196 -6.2161541 18
-1.92397 24.778082 -6.353085 60
-29.667683 43.753162 -5.3925128 89
-4.8217168 61.817482 -6.9073029 40
-16.532211 24.326414 -6.156291 26
-2.3089299 29.078199 -6.3836732 47
-30.401413 44.667217 -3.6128969 210
-19.626333 28.771133 -6.030499 20
-2.848496 35.24958 -6.457737 58
-30.350979 44.459534 -1.716278 210
-8.0846109 99.61235 -4.1169538 11
-12.506257 18.278614 -6.2752848 18
-1.775128 21.591311 -6.3478222 65
-24.689592 36.058243 -6.0056081 84
-3.712405 44.962688 -6.6232262 49
-32.359108 47.223919 0.17323799 63
-14.277947 20.821222 -6.2111492 17
-2.061496 24.756973 -6.349503 60
-30.028933 43.757786 -5.4149008 90
-5.1279521 61.323898 -6.8528981 33
-16.660912 24.223661 -6.1544561 29
-2.4700601 29.050306 -6.3793068 47
-30.39798 44.130268 -3.5843749 210
-19.816484 28.704193 -6.0404062 20
-3.045644 35.236851 -6.4570308 58
-8.709115 100.35256 -4.1457171 30
-12.593302 18.187038 -6.2684631 19
-1.894529 21.567863 -6.3430252 65
-24.96032 36.020412 -6.0234618 86
-3.978255 44.929737 -6.619884 49
-32.865288 47.357475 0.17304 66
-14.396379 20.713678 -6.2066379 16
-2.2177401 24.751722 -6.3504572 61
-30.459986 43.793552 -5.4442968 90
-5.498579 61.128395 -6.83215 13
-16.787766 24.082611 -6.1461039 28
-2.6434641 29.046795 -6.3806281 47
-19.955645 28.520802 -6.029017 19
-3.2626951 35.170803 -6.447001 57
-32.36393 46.22049 -1.801705 95
-12.713381 18.116184 -6.27209 18
-2.0311911 21.568125 -6.3457022 65
-25.17605 35.848492 -6.0222068 86
-4.248868 44.948349 -6.6243792 49
-32.95776 46.894154 0.170664 210
-14.567748 20.697083 -6.2281318 18
-2.37254 24.730265 -6.347506 61
-30.860069 43.779377 -5.4679341 90
-5.9364872 61.652802 -6.8921499 45
-16.936008 23.972776 -6.145916 28
-2.8253851 29.024151 -6.3781171 47
-20.095413 28.360777 -6.0211759 21
-3.472276 35.160255 -6.4472642 57
-32.806965 46.266422 -1.812435 93
-12.792554 17.987574 -6.2559071 16
-2.1660199 21.548498 -6.342782 65
-25.128067 35.306404 -5.9586959 84
-4.5305891 44.9147 -6.6215348 48
-33.646698 47.240662 0.171196 68
-14.677584 20.577215 -6.2204032 19
-2.515991 24.683777 -6.3382168 61
-31.256035 43.78701 -5.493288 90
-6.245564 61.062428 -6.8277068 12
-17.069178 23.841978 -6.140564 29
-3.004473 28.974781 -6.3699861 49
-51.750938 72.231674 -5.950387 83
-7.818151 75.141632 -5.7451248 63
-20.279854 28.243206 -6.024087 19
-3.689718 35.105343 -6.4397702 57
-33.990669 47.303032 -1.862878 91
-12.91445 17.91951 -6.260973 17
-2.299964 21.521318 -6.3378878 65
-25.336729 35.130245 -5.9568658 83
-4.8147082 44.904034 -6.6223459 48
-34.369827 47.619904 0.17183299 71
-14.763158 20.424509 -6.2028689 15
-2.674607 24.700489 -6.3455601 61
-31.683187 43.800793 -5.5212998 90
-6.699954 61.674152 -6.8980441 11
-17.209951 23.739712 -6.1411829 23
-3.1855569 28.947067 -6.3668661 49
-52.003769 71.629623 -5.929893 79
-8.2107134 74.371742 -5.6869502 210
-20.435078 28.085222 -6.0185962 23
-3.9096091 35.076008 -6.4372249 56
-34.329563 47.14669 -1.866688 88
-13.005179 17.821484 -6.2541819 17
-2.4303739 21.531578 -6.3440809 65
-25.581999 35.030285 -5.9666409 83
-5.0895209 44.809231 -6.6110139 48
