# .PCD v0.7 - Point Cloud Data file format
VERSION 0.7
FIELDS x y z
SIZE 4 4 4
TYPE F F F
COUNT 1 1 1
WIDTH 1548
HEIGHT 1
VIEWPOINT 0 0 0 1 0 0 0
POINTS 1548
DATA ascii
-7.1862779 20.682663 -6.2784481
4.0213671 21.69735 -6.3963432
8.4452314 45.655315 -6.682601
-8.2790308 23.694221 -6.2578769
-9.6711922 27.554911 -6.207252
5.3947039 29.567778 -6.486268
6.4998641 35.980572 -6.56738
-7.3046079 20.604721 -6.2685971
-14.995667 42.252697 -6.3011222
8.1668863 45.663956 -6.6735148
-8.4426451 23.683542 -6.2689428
-9.8267441 27.445038 -6.1962881
5.21277 29.623543 -6.4889531
6.2680039 35.988205 -6.5587969
-7.4392891 20.573248 -6.273118
3.7548981 21.738537 -6.3911219
-15.235373 42.087261 -6.2906022
7.8836422 45.736588 -6.67344
-8.5776024 23.618063 -6.2649741
-9.993474 27.367643 -6.1928692
5.021924 29.628492 -6.4807682
6.049726 35.997326 -6.5512981
-7.5623789 20.509752 -6.2681231
3.6184061 21.762709 -6.3896952
-15.465557 41.898712 -6.2768211
7.5980849 45.797081 -6.6718559
-8.7238541 23.558372 -6.263556
4.1410961 25.123163 -6.4239898
-10.168645 27.31348 -6.1949482
4.8386879 29.678003 -6.482594
5.8345499 36.103439 -6.5611582
-7.684731 20.466591 -6.2687578
3.4853101 21.808254 -6.3947902
-15.71502 41.76487 -6.2714391
7.3047791 45.810013 -6.6636181
-8.8640728 23.48288 -6.2581701
-10.320998 27.227468 -6.1892219
4.6575851 29.674934 -6.4736762
5.5990849 36.08456 -6.548562
-7.8210392 20.438452 -6.2750669
3.3529949 21.810066 -6.387753
-15.9439 41.622116 -6.2641001
7.0259299 45.807697 -6.6539879
-9.0024633 23.403374 -6.2519331
-10.495173 27.170637 -6.1911721
4.471365 29.705763 -6.47193
5.3690081 36.097233 -6.541976
-7.931488 20.34322 -6.2610049
3.2205579 21.862375 -6.3953061
-16.185272 41.470306 -6.256434
6.74015 45.865742 -6.6528478
-9.1490583 23.369658 -6.257319
3.6828871 25.183723 -6.4157639
9.1219053 62.52837 -6.8310838
-10.642568 27.100927 -6.188735
4.3041382 29.72164 -6.4680858
5.1680312 36.131622 -6.5405388
-8.0510006 20.313789 -6.2656889
3.094202 21.85033 -6.385108
-16.392881 41.319397 -6.2473831
6.4878402 45.930679 -6.6539888
-9.2814732 23.299641 -6.2532091
-10.801143 27.004789 -6.182157
4.1135998 29.721312 -6.4600592
4.9485812 36.125511 -6.5315261
-8.1711111 20.244556 -6.260047
2.9566059 21.867523 -6.3828712
-16.609789 41.110676 -6.2314811
6.193449 45.928459 -6.6446242
-9.4007816 23.197783 -6.2407351
-10.960011 26.910381 -6.176188
3.9299829 29.77087 -6.4631362
4.728879 36.212387 -6.5391121
-8.2977171 20.21183 -6.2650428
2.8192811 21.886677 -6.3814631
-16.873062 41.018383 -6.233438
5.9088011 45.997986 -6.6459112
-9.5483027 23.142988 -6.2420101
-11.114024 26.831633 -6.173142
3.7539489 29.799206 -6.4622631
4.4974041 36.210354 -6.5309
-8.4143543 20.134905 -6.257463
2.688308 21.894508 -6.377378
-17.056835 40.775681 -6.2118282
5.6309299 45.992947 -6.6371579
-9.6740294 23.058661 -6.2346392
7.5517969 62.587841 -6.7977238
-11.284173 26.765497 -6.1741161
3.5659471 29.816395 -6.4588132
4.2767458 36.188141 -6.519743
2.5487239 21.894083 -6.37077
-17.298151 40.633537 -6.2066088
5.356267 46.151745 -6.651824
-9.8117838 22.981176 -6.2302361
-11.42478 26.630337 -6.1593761
3.3771651 29.826097 -6.4540048
4.05305 36.247955 -6.523201
-8.644948 19.996447 -6.2467928
2.4199159 21.919315 -6.3722248
-17.513851 40.47213 -6.197721
5.0634499 46.159573 -6.6449828
-9.9501085 22.905552 -6.2265592
-11.589233 26.577272 -6.1629
3.2016871 29.860273 -6.4551139
3.8277459 36.296669 -6.5249152
-8.7744999 19.951015 -6.2497001
2.2830081 21.942375 -6.3729448
-17.755642 40.333675 -6.19348
4.7979259 46.270584 -6.653676
-10.093665 22.863787 -6.231379
6.4196119 62.981201 -6.8134971
-11.745087 26.479342 -6.1571832
3.0126719 29.866566 -6.450079
3.609421 36.289894 -6.5172858
2.14711 21.976902 -6.377244
-17.99662 40.194309 -6.189322
4.4974809 46.200932 -6.6362281
-10.216862 22.754793 -6.2190471
6.0416441 62.975246 -6.8047419
-11.903923 26.388828 -6.1534061
2.824513 29.880217 -6.4468961
3.382714 36.32666 -6.5173588
-8.9998913 19.803392 -6.2374358
2.01387 21.958843 -6.366838
-18.185585 39.978569 -6.1726098
4.2081451 46.239704 -6.6346359
-10.371423 22.715975 -6.2261248
5.587182 62.357273 -6.7297421
-12.055532 26.307304 -6.15097
2.647239 29.89744 -6.4450631
3.1568339 36.375225 -6.519804
1.876186 21.974876 -6.3662658
-18.38673 39.756084 -6.1559739
3.933372 46.260242 -6.6310711
-10.485723 22.610224 -6.2140851
5.267385 63.257164 -6.8188052
-12.224943 26.240389 -6.153163
2.4576371 29.892799 -6.438446
2.939472 36.37534 -6.514153
1.737624 21.980501 -6.362936
-18.627256 39.620834 -6.1530328
3.6485441 46.359127 -6.6386061
-10.637277 22.564465 -6.2197552
-12.375293 26.156504 -6.1506038
2.2722721 29.940655 -6.4433932
2.6977241 36.388172 -6.5103931
1.599189 21.986937 -6.360096
-18.838558 39.425007 -6.140882
3.354373 46.342205 -6.6298199
-10.769016 22.476675 -6.2140851
4.4865699 63.209595 -6.7988458
-12.531081 26.037668 -6.1420689
2.0825861 29.932491 -6.436542
2.480875 36.390762 -6.5056891
1.461786 22.008226 -6.3618078
-19.059034 39.250538 -6.1322389
3.0674479 46.427677 -6.6359501
-10.912268 22.413168 -6.2153611
-12.683123 25.958248 -6.1409798
1.906229 29.964787 -6.438911
2.2543061 36.440041 -6.5092802
1.329386 21.987146 -6.3517551
-19.263668 39.080055 -6.1233549
2.792053 46.4478 -6.633316
-11.045568 22.329384 -6.2112498
-12.846227 25.878559 -6.1411018
1.718992 29.994915 -6.440793
-39.039547 78.575783 -6.1353521
2.037277 36.439331 -6.5044699
1.193031 22.028671 -6.3598032
-19.4779 38.896473 -6.113646
2.498342 46.43066 -6.6253009
-11.182724 22.2731 -6.213943
1.3382289 25.365492 -6.3752198
-13.000572 25.781469 -6.1373258
1.5285341 29.966652 -6.430398
-39.481121 78.227188 -6.1273808
1.810764 36.501438 -6.510848
1.053218 22.006893 -6.3498278
-19.718224 38.766083 -6.112504
2.210412 46.526463 -6.633667
-11.306952 22.172009 -6.2054381
1.178688 25.370392 -6.3726139
-13.140018 25.677849 -6.1311131
1.350673 29.974997 -6.4283409
-39.883617 77.872391 -6.118021
1.581104 36.505615 -6.5071511
0.92290902 22.01992 -6.350338
-19.886976 38.530315 -6.0938301
-11.444469 22.097498 -6.2045879
1.019459 25.382275 -6.3720179
-13.292109 25.57749 -6.1269708
1.162149 29.978746 -6.4253259
-40.259102 77.402985 -6.1008959
1.36287 36.472111 -6.4972291
0.78389198 22.007191 -6.3434768
-20.134619 38.415943 -6.0956302
-11.58042 22.038759 -6.2072811
0.86825103 25.371246 -6.366106
-13.454427 25.497017 -6.1278229
0.972812 29.956114 -6.4169178
-40.654289 76.977425 -6.0873671
1.134809 36.51614 -6.501143
0.646308 22.035755 -6.348774
1.349257 46.557217 -6.624002
-11.705552 21.940983 -6.200336
0.70869201 25.371521 -6.3630958
-13.599 25.404602 -6.1248999
0.79591 29.994415 -6.421998
-41.035027 76.5942 -6.076211
0.90425903 36.478539 -6.490788
0.51568902 22.045805 -6.3491302
-20.605145 38.172096 -6.0964289
-11.83311 21.866636 -6.199059
0.54929799 25.377005 -6.3616481
-13.752605 25.308081 -6.1223421
0.60743201 29.998682 -6.4198561
-41.39397 76.111458 -6.0584288
0.68758798 36.473289 -6.486639
0.37720799 22.051296 -6.348269
-20.847942 38.048016 -6.0974131
-11.953571 21.761457 -6.190413
0.39875999 25.383671 -6.360888
-13.908027 25.215149 -6.1208801
0.41858801 29.977129 -6.4124479
-41.764046 75.655449 -6.0429001
0.45828301 36.466938 -6.4823608
0.24628299 22.047363 -6.3450651
-12.091173 21.687908 -6.19098
0.239299 25.389517 -6.3600259
-14.056552 25.13064 -6.1205058
0.240693 29.978918 -6.410429
-42.11145 75.226212 -6.0284691
0.22912399 36.465492 -6.479218
0.107753 22.048906 -6.3435631
-12.232528 21.638544 -6.1975002
-14.204857 25.02541 -6.1164942
0.052264001 29.94417 -6.4007082
-42.506767 74.825455 -6.0176382
0.012737 36.485077 -6.4802122
-0.030755 22.027056 -6.3355861
-12.373337 21.570135 -6.2000518
-0.070862003 25.375992 -6.352849
-14.357524 24.928217 -6.114666
-0.135859 29.939177 -6.3976092
-42.91362 74.448563 -6.008893
-0.216482 36.480827 -6.4770789
-0.169148 22.02573 -6.3337688
-12.483454 21.448725 -6.1875782
-0.23028 25.372631 -6.3504348
-14.496239 24.827234 -6.1108899
-0.32370001 29.912947 -6.3902321
-43.24361 73.943314 -5.9899259
-0.44528201 36.445137 -6.4686289
-0.29993701 22.030937 -6.3341441
-12.626067 21.383574 -6.1915469
-0.389431 25.353489 -6.3443279
-14.653406 24.738127 -6.1114988
-0.501697 29.940119 -6.394598
-43.665241 73.657745 -5.9876781
-0.67437798 36.447815 -6.4672518
-0.43826199 22.023977 -6.3312011
-12.750241 21.287237 -6.186727
-0.54880702 25.354414 -6.3434968
-14.801741 24.634237 -6.1086888
-0.68945903 29.921331 -6.3893118
-44.032318 73.224182 -5.9748049
-0.90289599 36.423672 -6.4613781
-0.57710201 22.038668 -6.3347349
-12.872797 21.20537 -6.1850262
-14.955951 24.540293 -6.1085749
-0.87656701 29.886473 -6.3808541
-44.344193 72.704521 -5.95502
-1.118378 36.396736 -6.455338
-0.71444303 22.000134 -6.323225
-13.004885 21.122618 -6.1846008
-0.85797101 25.329594 -6.3359528
-15.090469 24.433556 -6.1041899
-1.063917 29.868769 -6.376317
-1.347014 36.38826 -6.4527521
-0.84514803 21.999846 -6.3229661
-13.127709 21.025057 -6.1800652
-1.017029 25.32185 -6.333704
-15.250993 24.349916 -6.1071129
-1.240707 29.851446 -6.372139
-1.5752389 36.370277 -6.448741
-0.98327601 21.992235 -6.320837
-1.176128 25.31534 -6.3320189
-15.401228 24.249741 -6.1061392
-1.427386 29.825163 -6.366271
-1.801262 36.309948 -6.4374838
-1.121804 21.99283 -6.321321
-15.551116 24.14912 -6.1052861
-1.614498 29.810871 -6.3632188
-2.0180299 36.322632 -6.4394431
-1.259022 21.968861 -6.3149991
-15.690008 24.031738 -6.1004128
-1.799304 29.759329 -6.3524718
-2.2423179 36.246304 -6.425858
-1.3892469 21.959148 -6.312974
-13.62092 20.672913 -6.1725621
-15.847365 23.979116 -6.1094279
-1.966565 29.765192 -6.354166
-2.457823 36.239082 -6.4247651
-1.519443 21.949265 -6.3111272
-15.997717 23.879072 -6.1094279
-2.154115 29.760128 -6.3538251
-2.673151 36.228279 -6.4232688
-1.658585 21.955986 -6.3143601
-13.863226 20.491306 -6.1684508
-16.144285 23.791307 -6.1113768
-2.339159 29.721849 -6.3466468
-2.8972571 36.167469 -6.4131842
-1.789243 21.950638 -6.3142829
-16.261946 23.643597 -6.0995612
-2.5150869 29.702692 -6.3437309
-47.707939 69.311783 -5.883904
-3.1267171 36.174828 -6.4154458
-1.927458 21.942743 -6.313807
-2.258023 25.201311 -6.309907
-16.442322 23.587061 -6.1115069
-2.701545 29.684998 -6.3414459
-48.039158 68.862526 -5.871274
-3.35132 36.126148 -6.40803
-2.0642691 21.919355 -6.3091259
-16.579285 23.467838 -6.1074872
-2.8860431 29.647268 -6.335135
-48.406769 68.468643 -5.8635092
-3.566468 36.114048 -6.4072709
-2.202446 21.910885 -6.308991
-16.710062 23.34037 -6.1015182
-3.0692921 29.59988 -6.3270121
-48.744778 68.035812 -5.8525538
-3.791239 36.071247 -6.4013991
-2.3324101 21.897255 -6.307476
-16.814968 23.194862 -6.089458
-3.2477441 29.607201 -6.3307071
-49.010014 67.555634 -5.836164
-4.0147181 36.019016 -6.3941102
-2.469425 21.877537 -6.304595
-2.8820989 25.139812 -6.303617
-16.988195 23.126629 -6.0994468
-3.4331579 29.581488 -6.327713
-49.424854 67.234589 -5.8351431
-4.2419438 36.001507 -6.3932428
-2.607084 21.863674 -6.3036528
-3.0310709 25.120955 -6.301661
-17.153017 23.046101 -6.106513
-3.6167049 29.540956 -6.3218021
-49.713295 66.744118 -5.8195701
-4.4545588 35.96806 -6.3896589
-2.741292 21.822077 -6.2949648
-3.1858859 25.078085 -6.2940879
-17.276085 22.909498 -6.098959
-3.800318 29.502699 -6.3166299
-49.927814 66.160309 -5.7959051
-4.6814098 35.946629 -6.3885989
-2.8801019 21.817705 -6.297266
-3.3454809 25.073225 -6.2963071
-17.391556 22.780157 -6.0918941
-3.974071 29.470345 -6.3127861
-4.8947668 35.919163 -6.3865528
-3.0031121 21.810007 -6.2984281
-3.4962249 25.067385 -6.2983251
-17.515564 22.662495 -6.0881171
-4.1473279 29.435226 -6.3085742
-50.62545 65.454453 -5.7863002
-20.821981 26.862896 -5.9929652
-5.1139731 35.842964 -6.376256
-3.140547 21.793894 -6.297823
-3.6439049 25.039255 -6.29497
-17.652662 22.545677 -6.086411
-50.884659 64.942291 -5.7691741
-5.3279972 35.821529 -6.3757539
-3.278821 21.783043 -6.2989941
-3.8006201 25.012323 -6.2923789
-17.798599 22.456247 -6.0906749
-4.505187 29.372963 -6.3027639
-51.082073 64.403351 -5.7481241
-5.5502758 35.77002 -6.3703451
-3.4052081 21.745211 -6.2923541
-3.9582911 24.991674 -6.2916231
-17.936832 22.340845 -6.0898228
-4.690258 29.347862 -6.3016362
-5.7756219 35.738819 -6.3688102
-3.5436399 21.734863 -6.2941651
-4.103447 24.949038 -6.2853141
-18.073233 22.223257 -6.088604
-4.8707719 29.295017 -6.2948008
-5.981741 35.668999 -6.3604012
-3.6813359 21.719263 -6.294713
-4.2622089 24.934959 -6.286705
-18.203333 22.113848 -6.0881171
-6.207685 35.641899 -6.3600969
-3.8068099 21.677984 -6.287765
-4.4151878 24.887358 -6.2798948
-18.327971 21.982309 -6.083488
-5.2284389 29.234072 -6.2912159
-52.367298 62.764038 -5.7159162
-6.4235468 35.629219 -6.3623552
-3.941592 21.646231 -6.2841148
-4.5696359 24.897997 -6.2877288
-18.474602 21.877228 -6.086411
-5.4074931 29.176228 -6.284039
-52.876064 62.570381 -5.7284241
-21.904491 25.865479 -5.9764948
-6.643116 35.565845 -6.3560781
-4.0755048 21.610353 -6.2795162
-4.7197928 24.836216 -6.277823
-18.567234 21.724081 -6.0743508
-5.5835109 29.159184 -6.2855878
-52.985046 61.949898 -5.7003031
-6.8599529 35.489792 -6.3477831
-4.208704 21.611629 -6.285625
-4.8791151 24.823193 -6.2804909
-18.746124 21.656391 -6.0882392
-5.7640152 29.110411 -6.2808509
-53.24427 61.466877 -5.6865292
-7.0770512 35.481644 -6.3515759
-4.3445978 21.585695 -6.28441
-5.0277529 24.800814 -6.2806978
-5.9404502 29.042547 -6.2722402
-7.3224058 35.545986 -6.368928
-4.4827399 21.570492 -6.2865758
-5.185431 24.778055 -6.281405
-18.978872 21.391457 -6.0784931
-6.1213508 28.997732 -6.2688522
-53.815243 60.570976 -5.6657648
-7.511117 35.337036 -6.337563
-4.6060219 21.521832 -6.2788548
-5.3385749 24.73369 -6.276886
-19.096048 21.253029 -6.073133
-6.2953429 28.970213 -6.2690859
-54.06274 60.127125 -5.6541572
-7.7188721 35.224689 -6.3237391
-4.7453671 21.511555 -6.2829571
-5.491365 24.688375 -6.2723742
-6.4797058 28.941086 -6.269587
-54.341866 59.679073 -5.644021
-22.766127 24.949579 -5.9555149
-7.9373288 35.163479 -6.3193378
-4.8761501 21.462461 -6.2759728
-5.644444 24.684536 -6.2782469
-6.6562252 28.87727 -6.2628241
-54.59808 59.208836 -5.6318822
-8.1356306 35.071693 -6.3093009
-5.0142012 21.445492 -6.278635
-5.7941771 24.626259 -6.2709241
-6.838017 28.836918 -6.2613969
-8.3468103 34.982079 -6.3002682
-5.1417289 21.416847 -6.2776909
-5.9495511 24.592501 -6.270092
-7.012763 28.811218 -6.2629809
-8.5575962 34.892876 -6.2915492
-5.2768149 21.386642 -6.2769752
-6.107748 24.569904 -6.2723651
-7.1841531 28.728613 -6.2528572
-8.7763329 34.837101 -6.2891059
-5.4135342 21.362722 -6.2783608
-6.2507191 24.522552 -6.2681041
-7.364316 28.682123 -6.2508349
-8.971015 34.738365 -6.278708
-5.5439181 21.313931 -6.2726879
-6.4011712 24.469402 -6.2630601
-7.5424342 28.627884 -6.247375
-9.1763287 34.633099 -6.2677922
-5.6785512 21.281767 -6.2721558
-6.5622568 24.45653 -6.2685819
-9.3867369 34.548939 -6.2609329
-5.803051 21.241516 -6.2689738
-6.7136278 24.406952 -6.264956
-7.8846278 28.508326 -6.2382731
-9.5998659 34.475769 -6.25631
-5.937109 21.20717 -6.26829
-6.8599792 24.372498 -6.2649379
-8.045949 28.433786 -6.2305779
-9.7787704 34.374184 -6.245769
-6.0739641 21.210373 -6.2784271
-6.9970312 24.305462 -6.256763
-6.199924 21.147274 -6.269731
-7.1571188 24.286509 -6.261745
-6.3278432 21.118584 -6.270905
-7.302937 24.219048 -6.2544742
-6.459352 21.074957 -6.2684612
-7.450212 24.157274 -6.2489071
-6.5915828 21.033772 -6.266994
-7.5928521 24.1108 -6.246943
-6.7326641 21.020205 -6.2740231
-13.928402 43.433983 -6.3309088
-7.7535419 24.091661 -6.252913
-6.8498602 20.957178 -6.2659068
-14.201334 43.346542 -6.3283868
-7.9032869 24.037989 -6.2501831
-6.9793768 20.90766 -6.262691
-14.412043 43.123081 -6.305644
-8.0508289 23.977919 -6.2460341
-7.1207242 20.893084 -6.2702079
-14.698191 43.077057 -6.3096581
-8.1831341 23.900984 -6.2370658
-7.25457 20.855728 -6.271162
-14.940046 42.901978 -6.2950168
-8.3445234 23.881659 -6.2440319
-7.3739848 20.800417 -6.2662692
-15.181643 42.729389 -6.2809582
-8.4909019 23.818914 -6.2399101
-7.499701 20.762978 -6.2669821
-15.427657 42.664967 -6.281745
-8.6351242 23.776447 -6.2406449
-7.630733 20.717407 -6.2661982
-15.675279 42.512558 -6.2710929
-8.7747993 23.721369 -6.238297
-7.762054 20.672522 -6.2658758
-15.904616 42.313553 -6.2537818
-8.9187908 23.652826 -6.2333589
-7.8810892 20.616938 -6.2618022
-16.147663 42.198135 -6.2483549
-9.0751104 23.616831 -6.2372541
-33.404804 86.48069 -6.289135
-8.0061016 20.55579 -6.2570229
-16.413872 42.099411 -6.2463288
-9.2149305 23.537918 -6.2300639
-33.893696 86.132332 -6.2740512
-8.1294088 20.49074 -6.2512908
-16.653341 41.933197 -6.2345271
-9.3396187 23.445604 -6.2187648
-34.45652 85.973343 -6.273016
-8.2543268 20.430178 -6.2471628
-16.894852 41.774242 -6.2240238
-9.4965019 23.410507 -6.2236538
-8.3721142 20.372803 -6.2434292
-17.124414 41.58815 -6.2096891
-9.6342154 23.328123 -6.2162242
-35.337139 85.143242 -6.2336679
-8.504673 20.331078 -6.245554
-17.334707 41.399361 -6.194387
-9.7785139 23.262169 -6.2134061
-35.797611 84.744827 -6.2158308
-8.6334896 20.280157 -6.2451148
-17.60918 41.324112 -6.1970649
-9.9156151 23.201939 -6.2115211
-36.208065 84.236031 -6.1901002
-8.7570572 20.217003 -6.2411571
-17.859371 41.191662 -6.1914229
-10.05022 23.11393 -6.2032609
-36.724339 83.978783 -6.183073
-8.8715458 20.171675 -6.2411819
-18.08765 41.087864 -6.1887069
-10.1839 23.046408 -6.1998572
-37.104897 83.574402 -6.1640811
-8.9934196 20.105045 -6.2366061
-18.311434 40.897423 -6.174767
-10.326077 22.976568 -6.1969318
-37.588993 83.250404 -6.152576
-9.1164551 20.041304 -6.2331619
-18.554689 40.752247 -6.1678758
-10.472772 22.937952 -6.201786
-38.098534 82.984726 -6.1456251
-9.243289 19.985989 -6.2325859
-18.806627 40.626766 -6.1642051
-10.609643 22.856522 -6.1962109
-9.3568115 19.920328 -6.2280831
-18.999874 40.376793 -6.1418428
-10.73836 22.758287 -6.1862988
-9.4882526 19.874681 -6.2310252
-19.224504 40.232712 -6.134891
-10.880795 22.689646 -6.1846552
-9.6204882 19.830231 -6.2346191
-19.45018 40.056068 -6.1240659
-11.008161 22.610126 -6.179317
-9.7497625 19.77927 -6.2364411
-19.69314 39.91618 -6.1190839
-11.147631 22.535711 -6.1765671
-40.265453 80.972252 -6.0626559
-9.8602953 19.707737 -6.231009
-19.920528 39.745724 -6.1096392
-11.287876 22.462978 -6.174521
-40.609718 80.463364 -6.0380368
-20.20619 39.725426 -6.1225972
-11.433599 22.401028 -6.175694
-20.41609 39.521603 -6.108469
-11.563066 22.326492 -6.1726151
-20.748558 39.553726 -6.1310992
-11.681483 22.231092 -6.1639638
-41.995071 79.516144 -6.0104842
-20.819077 39.154995 -6.0851421
-11.829659 22.173609 -6.1671071
-42.358929 79.065338 -5.9909372
-21.048565 38.993549 -6.0781569
-11.977842 22.115643 -6.170393
-43.017582 79.096809 -6.0090609
-21.280188 38.836876 -6.0721402
-12.104339 22.035931 -6.1667671
-43.566975 78.921455 -6.011807
-12.234675 21.945309 -6.1614079
-44.063568 78.648972 -6.007432
-12.357345 21.841536 -6.1525688
-44.477665 78.294861 -5.9961238
-12.512059 21.794336 -6.1599188
-44.676613 77.507088 -5.9526539
-12.630728 21.701765 -6.1535358
-12.779745 21.643843 -6.158391
-12.913599 21.559973 -6.1561308
-13.050744 21.481594 -6.1556878
-13.163223 21.379791 -6.1475172
-13.286682 21.296207 -6.1447778
-13.424064 21.21837 -6.1451969
-13.543761 21.112787 -6.1378121
-15.763231 24.497293 -6.0642252
-13.681682 21.051853 -6.1423402
-15.916398 24.397089 -6.0625548
-13.80788 20.956667 -6.1384392
-16.07205 24.300646 -6.0620689
-13.937574 20.86694 -6.136373
-16.216465 24.205587 -6.0608478
-14.074003 20.78722 -6.1375031
-16.371943 24.108685 -6.060739
-14.198236 20.704979 -6.1367588
-16.512531 23.98999 -6.055387
-14.331791 20.620749 -6.137064
-16.686081 23.91894 -6.0623269
-14.456655 20.524021 -6.1338968
-16.813982 23.800049 -6.055994
-14.576899 20.420979 -6.1290679
-16.964693 23.696035 -6.0550742
-14.694187 20.344044 -6.129375
-17.090017 23.574268 -6.048398
-14.808111 20.232721 -6.1224728
-17.239613 23.486071 -6.0505471
-14.971421 20.188469 -6.1361561
-17.396961 23.390898 -6.0526309
-15.08447 20.076031 -6.1294041
-17.509922 23.236454 -6.039587
-15.202446 19.984995 -6.1278558
-17.67942 23.157211 -6.04632
-15.325111 19.885702 -6.1255641
-17.80298 23.017759 -6.037581
-15.463965 19.807222 -6.129951
-17.954983 22.931793 -6.0415421
-53.856094 68.734634 -5.7155828
-15.592174 19.714806 -6.1303072
-18.077137 22.791327 -6.032938
-15.69409 19.603449 -6.1233649
-18.243513 22.706583 -6.0393319
-15.820739 19.509125 -6.1236019
-18.364267 22.565023 -6.0308628
-15.931622 19.395475 -6.1180081
-18.525736 22.489506 -6.0386481
-18.654253 22.373648 -6.0358548
-18.796858 22.258837 -6.035254
-18.931389 22.15015 -6.0348501
-19.065859 22.025763 -6.0321221
-19.199888 21.90099 -6.02952
-19.344151 21.803169 -6.032815
-38.955482 43.447102 -5.8388591
-19.490499 21.692036 -6.034492
-57.750652 64.228722 -5.6122208
-39.360451 43.378098 -5.8584609
-19.603443 21.543905 -6.0261002
-39.756294 43.26495 -5.8742518
-19.768034 21.46748 -6.0361762
-19.885487 21.324577 -6.0296888
-20.022017 21.202322 -6.0292621
-20.143288 21.078753 -6.0267749
-20.283491 20.960203 -6.0279021
-20.416975 20.834578 -6.027256
-20.55938 20.717876 -6.0294609
-20.691072 20.604588 -6.03091
-20.811714 20.465902 -6.0272012
-20.926899 20.322117 -6.0221968
-21.074619 20.209835 -6.0267859
-25.004879 23.91189 -5.8959942
-21.175991 20.06719 -6.0204339
50.802975 30.81587 -7.3718009
50.16885 30.864082 -7.3090839
32.99218 29.045609 -7.0454431
50.568333 66.76638 -7.572679
50.501286 67.555611 -7.6286721
12.692376 20.941103 -6.639133
12.556933 21.014385 -6.6381192
12.393268 21.039593 -6.6222529
12.283426 21.121992 -6.627295
12.127579 21.158815 -6.615715
11.990927 21.228456 -6.6147099
11.837963 21.26862 -6.6048298
11.70598 21.328356 -6.6025548
11.551189 21.363476 -6.5917449
11.419015 21.43992 -6.5939841
11.267947 21.48049 -6.5854788
11.124858 21.517145 -6.5772352
10.982683 21.573341 -6.5741181
10.845799 21.639688 -6.5743699
10.693814 21.656317 -6.5609078
10.544578 21.696421 -6.553792
10.423359 21.774731 -6.5595341
10.266001 21.796606 -6.5475039
10.129697 21.862514 -6.5489988
9.9786673 21.896185 -6.541121
9.8385134 21.932623 -6.535347
9.7068052 22.00827 -6.5405378
11.385686 25.912733 -6.648632
9.5608139 22.051485 -6.536355
11.21667 25.969919 -6.6461868
9.4035807 22.067726 -6.5244851
11.02911 25.982952 -6.6327548
9.2859249 22.155256 -6.5348659
10.863567 26.046772 -6.6325941
9.1313744 22.176342 -6.5249982
10.701365 26.0667 -6.6233268
9.0010157 22.233591 -6.526926
10.52215 26.095671 -6.6148648
8.8478785 22.256344 -6.518126
10.34949 26.139824 -6.6105528
8.7108355 22.296127 -6.5154428
10.173177 26.173801 -6.6039619
8.5644255 22.334387 -6.511745
9.9954233 26.202866 -6.5964341
8.42344 22.386467 -6.5123482
9.8386745 26.258827 -6.596765
8.2803764 22.432882 -6.511569
9.6665192 26.301155 -6.5931311
26.99765 73.535835 -7.2093029
8.1443357 22.473961 -6.5102801
9.4849386 26.316599 -6.583056
7.9947448 22.501547 -6.5045781
9.3210268 26.380278 -6.5853329
7.8611178 22.574055 -6.5121231
9.1509771 26.396641 -6.5768132
7.7135692 22.606712 -6.5084281
8.9819145 26.4447 -6.5757289
10.752276 31.839403 -6.6879268
7.5614491 22.598783 -6.4940529
8.8063316 26.472807 -6.5699649
10.554584 31.87678 -6.6837668
7.4290762 22.648939 -6.4966259
8.6431761 26.506477 -6.5665522
10.344409 31.874668 -6.6715999
7.2799778 22.674475 -6.491703
8.4768057 26.529364 -6.5607219
10.135505 31.912498 -6.6673999
7.1333938 22.707121 -6.4890928
8.3081617 26.576378 -6.5604539
9.9241457 31.941282 -6.6615992
6.9868541 22.739361 -6.486639
8.134614 26.607121 -6.5564442
9.7224836 31.960342 -6.6546969
6.8614931 22.812668 -6.4967771
7.9613242 26.637789 -6.5526948
9.5194407 32.013943 -6.654624
6.7072692 22.818748 -6.487391
7.7977629 26.666265 -6.5492911
9.2896557 31.975201 -6.6356592
6.5587001 22.842804 -6.4834008
7.630147 26.715034 -6.5505209
9.0778313 31.995096 -6.6291752
6.4091778 22.862631 -6.478488
7.448287 26.712757 -6.5395169
8.8809872 32.0238 -6.6253691
6.2700462 22.888031 -6.4759922
7.2809801 26.76153 -6.5412908
8.6726294 32.0532 -6.621408
6.127068 22.930546 -6.478025
7.1099749 26.758833 -6.531302
8.4658661 32.08736 -6.61871
5.98423 22.973808 -6.4805241
6.9402089 26.797203 -6.5310631
8.2542934 32.101822 -6.6122322
5.8420262 22.986214 -6.4751019
6.774724 26.812796 -6.5260539
8.0624743 32.145538 -6.6125598
5.7012458 23.003227 -6.4712248
6.6070118 26.858454 -6.5281081
7.8649678 32.165783 -6.608305
5.5496478 23.009766 -6.46416
6.4330211 26.878105 -6.524107
7.6583939 32.196419 -6.6059599
5.4032269 23.036772 -6.4631181
6.266623 26.886684 -6.5181608
7.4510989 32.222927 -6.603045
9.189476 39.995022 -6.7169762
5.256309 23.06119 -6.4616151
6.0966258 26.921377 -6.5183382
7.24264 32.243061 -6.5990982
8.9334078 40.031391 -6.7152109
5.1180911 23.086214 -6.4609861
5.9266858 26.956108 -6.5187869
7.0459762 32.26165 -6.5955391
8.6734505 40.048603 -6.7105141
4.9722862 23.114893 -6.4611859
5.756907 26.991438 -6.5196428
6.841887 32.2994 -6.5957289
8.4051933 40.023952 -6.6990938
4.8190451 23.107756 -6.4516468
5.586061 26.974066 -6.5084491
6.6266251 32.282391 -6.5850148
8.16541 40.062675 -6.6989489
4.6712461 23.125128 -6.449224
5.4112592 26.982651 -6.5033808
6.4264059 32.337215 -6.5892291
7.9013901 40.051655 -6.690372
4.5320492 23.142801 -6.4475322
5.2469959 27.043844 -6.5112519
6.224792 32.324879 -6.5803952
4.386703 23.171629 -6.448812
5.0630512 27.002033 -6.4945951
6.0180502 32.344448 -6.5779529
7.3855371 40.082993 -6.682981
4.2347851 23.164593 -6.4403768
4.9163022 27.052656 -6.501133
5.8290229 32.396339 -6.582685
7.156333 40.094345 -6.679626
4.0927801 23.164019 -6.434351
4.73949 27.044556 -6.4931049
5.628757 32.384785 -6.5747638
3.953783 23.179289 -6.4329638
4.5674329 27.061726 -6.491416
5.423131 32.407345 -6.573709
6.6432581 40.128654 -6.674335
3.802341 23.168793 -6.424355
4.3944349 27.072174 -6.488379
5.2170792 32.426327 -6.572197
6.3982348 40.124859 -6.6688962
3.6620259 23.226049 -6.4347911
4.2314692 27.083437 -6.4860911
5.0080199 32.424698 -6.5667772
6.1324878 40.075977 -6.6559572
3.511749 23.220354 -6.428041
4.054502 27.064672 -6.4765811
4.7994409 32.423424 -6.5617042
5.88304 40.130608 -6.6604862
3.373215 23.236092 -6.4277549
3.8857081 27.098938 -6.4800272
4.603848 32.429462 -6.5586262
5.6227932 40.109821 -6.65277
3.2205851 23.209496 -6.4157462
3.7097571 27.081875 -6.4714632
4.3974919 32.439259 -6.5563169
3.0748839 23.230722 -6.4172201
13.103539 17.250767 -6.6230869
3.553467 27.137642 -6.480792
9.5455246 73.096863 -6.887639
4.1894279 32.434067 -6.5512481
2.9259269 23.226286 -6.4118662
12.982791 17.316618 -6.61692
3.3757401 27.102053 -6.4683242
9.1365013 73.561531 -6.928978
3.981113 32.42355 -6.5453739
2.7884891 23.246908 -6.413898
12.8644 17.385237 -6.612123
3.2037449 27.108828 -6.4662352
3.7851429 32.416672 -6.5406899
2.640425 23.246851 -6.4102612
12.750097 17.446341 -6.6064701
3.0318019 27.114548 -6.4641581
3.5899651 32.413746 -6.537045
2.498538 23.225929 -6.4013128
12.653232 17.531235 -6.6100669
2.869801 27.122164 -6.4629641
3.3870399 32.443386 -6.5400419
2.3520739 23.236397 -6.4010839
12.51715 17.574335 -6.5965338
2.7045889 27.096474 -6.4540691
3.17783 32.410004 -6.530602
2.205523 23.245377 -6.400703
12.422268 17.675098 -6.604928
2.5354259 27.125143 -6.4582129
2.9729509 32.41647 -6.529458
2.066921 23.251038 -6.3998032
12.286061 17.716885 -6.5915661
2.362993 27.118149 -6.454124
2.7777171 32.40065 -6.5242052
1.919372 23.246393 -6.3961711
12.17343 17.778849 -6.587626
2.1930881 27.139 -6.456924
2.575017 32.429211 -6.5280209
48.742535 71.722458 -7.5868092
1.775272 23.284197 -6.4044738
12.052701 17.841982 -6.582829
2.030067 27.125652 -6.4519439
32.448441 48.251976 -7.1396389
2.3700581 32.429001 -6.526309
48.408947 72.203323 -7.60535
1.62616 23.255154 -6.3946481
11.937563 17.913162 -6.5812869
1.859576 27.13763 -6.453135
2.1661601 32.441822 -6.5274811
1.486709 23.242136 -6.3895688
11.817984 17.977482 -6.577507
1.684443 27.075058 -6.436861
1.9709769 32.410835 -6.5201578
1.339847 23.237162 -6.3868632
11.69373 18.020533 -6.5677528
1.516858 27.13097 -6.4490142
1.76794 32.43438 -6.5239968
1.192529 23.220011 -6.3810668
11.577837 18.089844 -6.566371
1.3526061 27.074886 -6.434845
1.561887 32.398624 -6.5161691
1.045504 23.202492 -6.3754268
11.461854 18.158916 -6.5651722
1.181306 27.056332 -6.429801
1.357461 32.387997 -6.513658
0.91638201 23.220139 -6.379755
11.354033 18.21266 -6.5615749
1.021365 27.079687 -6.4349871
13.086139 21.072918 -6.646625
1.176105 32.382767 -6.5124931
0.770271 23.219507 -6.3792381
11.229105 18.266933 -6.5555792
0.85111898 27.083008 -6.4356408
12.954954 21.157137 -6.6473832
0.97112501 32.339851 -6.5039811
0.624116 23.214642 -6.377811
11.107449 18.326138 -6.55165
0.68939698 27.048559 -6.4275641
12.813374 21.207481 -6.639194
0.76720703 32.315742 -6.4995108
0.47865501 23.238119 -6.3844261
10.992946 18.397007 -6.5521641
0.51883698 27.021296 -6.4214492
12.67234 21.274929 -6.635251
0.57535303 32.315434 -6.5000458
0.34066299 23.234631 -6.3838568
10.872201 18.442608 -6.545311
0.34893399 27.015186 -6.4206181
12.541856 21.359987 -6.6370711
0.371939 32.287109 -6.4952331
0.194317 23.19418 -6.3734021
10.744829 18.491144 -6.5384479
0.17892 26.976732 -6.412354
12.385854 21.40114 -6.625545
0.168963 32.269028 -6.4927392
0.048586998 23.198084 -6.3753891
10.622029 18.547108 -6.5345082
0.018839 26.983244 -6.4149642
12.253309 21.464922 -6.622664
-0.033721 32.203068 -6.4808669
-0.097139001 23.190298 -6.3744168
10.495922 18.596889 -6.5286832
-0.150636 26.971142 -6.4134612
12.094594 21.499529 -6.6097631
-0.236102 32.208252 -6.4835711
-0.234364 23.151152 -6.3649912
10.385948 18.675203 -6.5331368
-0.31978199 26.943155 -6.4084349
11.945277 21.549849 -6.6020288
-0.42642799 32.146278 -6.472898
-0.38029 23.177782 -6.3739729
10.24935 18.689833 -6.5168619
-0.48830301 26.898758 -6.399756
11.824289 21.6513 -6.610218
-0.62774199 32.109364 -6.4676242
-0.52472597 23.122681 -6.360733
10.138374 18.766184 -6.5211449
-0.64796102 26.897356 -6.4014349
11.67816 21.688694 -6.6003609
-0.82893598 32.083824 -6.4648962
-0.66936803 23.097179 -6.3558812
10.013683 18.817148 -6.5168619
-0.806817 26.868263 -6.39675
11.524573 21.711121 -6.586257
-1.018261 32.045345 -6.4596601
-0.80611098 23.084021 -6.3545361
9.8997622 18.872271 -6.515492
-0.97602201 26.873768 -6.400681
11.390029 21.787115 -6.587471
-1.207505 32.014931 -6.456275
-0.94327497 23.083635 -6.3569331
9.7749882 18.906294 -6.5070982
-1.143798 26.842327 -6.3960662
11.240979 21.83507 -6.5804839
-1.404708 31.917477 -6.4397731
-1.088416 23.079821 -6.3587809
9.6415138 18.938875 -6.497333
-1.310021 26.785358 -6.3856158
11.090019 21.878544 -6.5724568
-1.6058429 31.920351 -6.4437642
-1.233061 23.066031 -6.3581319
9.5220938 18.998611 -6.4971728
-1.467775 26.755781 -6.3817482
10.952408 21.928778 -6.5679069
-1.803628 31.86117 -6.4354811
-1.377002 23.041744 -6.3548422
9.3933449 19.03944 -6.4908228
-1.636256 26.752565 -6.3846021
10.803923 21.975828 -6.5615382
-1.990566 31.816381 -6.4301291
-1.510617 22.986105 -6.3429379
9.2632818 19.06004 -6.478991
-1.8006099 26.686871 -6.3727918
10.662181 22.036146 -6.5594149
-2.1880059 31.768002 -6.42451
-1.656209 22.992769 -6.348671
9.1428595 19.116854 -6.4786491
-1.967769 26.668486 -6.3725262
10.509403 22.073063 -6.5506191
-2.385433 31.725271 -6.4202809
12.378599 26.09277 -6.6675048
-1.798678 22.956837 -6.342895
9.0134983 19.154657 -6.4721389
-2.1259229 26.655533 -6.37356
10.37391 22.125814 -6.5478892
-2.5828769 31.687038 -6.417213
12.200647 26.140543 -6.6599922
-1.940666 22.918896 -6.3368058
8.8837881 19.19108 -6.465457
-2.291039 26.614668 -6.3684068
10.230182 22.180794 -6.5450082
-2.769439 31.654856 -6.4153399
12.029016 26.20112 -6.6560378
-2.080792 22.952829 -6.3505821
8.7755594 19.256207 -6.4697399
-2.455096 26.565969 -6.3616219
10.084769 22.231749 -6.5412169
-2.966053 31.613131 -6.4120498
11.853574 26.228338 -6.6449661
-2.2230289 22.919329 -6.346209
8.6452303 19.290512 -6.4628878
-2.6224411 26.554831 -6.3640809
9.9328957 22.267796 -6.5333309
-3.148663 31.545547 -6.4034519
11.688675 26.277872 -6.6398258
-2.3553209 22.870056 -6.3374171
-2.773227 26.563885 -6.3710279
9.8074636 22.32085 -6.5327239
-3.340832 31.468878 -6.3935409
11.520134 26.343472 -6.63798
-2.4988151 22.853386 -6.3381839
8.4031181 19.381323 -6.4584341
-2.935401 26.503721 -6.3622069
9.6629858 22.372681 -6.529994
-7.617198 68.556908 -6.5607762
-3.534925 31.415583 -6.388618
11.344466 26.392256 -6.6321812
-2.6355181 22.847977 -6.3420081
-3.1011729 26.4788 -6.3620892
9.5197916 22.427221 -6.528326
-3.7219291 31.399481 -6.391161
11.160512 26.394922 -6.6160922
-2.77653 22.810486 -6.337482
-3.2646511 26.435873 -6.357893
9.3588791 22.439093 -6.5145359
-3.917825 31.364922 -6.3905368
10.997748 26.472467 -6.6180782
-2.9178879 22.777689 -6.3345051
-3.421577 26.416885 -6.3593421
9.2362823 22.520382 -6.522109
-4.1084242 31.290991 -6.382133
10.804668 26.476028 -6.6018648
13.032773 32.063736 -6.7277389
-3.062567 22.770962 -6.3390298
-3.583689 26.366899 -6.3539228
9.0789375 22.539087 -6.5108762
-9.2560444 67.923431 -6.5325708
-4.3026361 31.247765 -6.3802338
10.635766 26.537563 -6.6004152
12.825511 32.1311 -6.7248321
-3.19697 22.747631 -6.3388109
-3.746352 26.323254 -6.3502731
8.9367409 22.594667 -6.5105829
-4.480021 31.166264 -6.3703532
10.469105 26.577368 -6.594748
12.604066 32.161781 -6.7145462
-3.3360939 22.701651 -6.3328872
-3.9112921 26.296646 -6.3509798
8.7905016 22.639822 -6.5075498
-4.6750278 31.132662 -6.3708949
10.292644 26.61866 -6.5888162
12.382949 32.19149 -6.7043719
-3.4770789 22.669895 -6.331172
-4.0652208 26.259741 -6.3490329
8.6596317 22.701105 -6.5102801
-4.8679242 31.085926 -6.368999
10.115671 26.657717 -6.5826221
12.173406 32.215981 -6.6943102
-3.6222529 22.66515 -6.337256
7.4143848 19.725649 -6.4426851
-4.231266 26.240696 -6.3520598
8.5116682 22.741285 -6.5063372
-5.0568142 31.015888 -6.3625689
9.9441929 26.710585 -6.5801172
11.964351 32.274574 -6.690732
-3.7539589 22.626814 -6.3337679
-4.3887491 26.170019 -6.3428302
8.3598356 22.770407 -6.4995122
-5.2361312 30.957876 -6.3583822
9.7686577 26.723009 -6.5687819
11.753538 32.292576 -6.6798868
-3.8824649 22.571018 -6.3256021
7.1759291 19.801683 -6.4392471
-4.545187 26.150534 -6.3457899
8.2224426 22.813723 -6.4978342
-5.418705 30.920324 -6.3586159
9.6106806 26.782656 -6.5693092
11.536488 32.326786 -6.6718378
-4.0257401 22.554775 -6.329196
-4.6972079 26.105995 -6.342895
8.0841017 22.854145 -6.4955692
-5.604094 30.837347 -6.3502088
9.4442949 26.848436 -6.5707588
11.340652 32.383816 -6.6696019
-4.170094 22.543732 -6.3345098
6.925612 19.887646 -6.4383898
-4.8633862 26.087996 -6.347157
7.9364529 22.893257 -6.4923849
-5.795877 30.791637 -6.3497128
9.2661133 26.880259 -6.564168
11.113061 32.384796 -6.6552911
-4.3010921 22.504436 -6.3316512
6.7972741 19.921259 -6.435318
-5.016675 26.00235 -6.3351998
7.7860718 22.92388 -6.4870672
-5.9707708 30.716963 -6.342967
9.0897884 26.885519 -6.552165
10.902399 32.433266 -6.651042
-4.4409232 22.469467 -6.3307271
6.675384 19.950615 -6.4318919
-5.1827922 25.984549 -6.3400121
7.6431351 22.976107 -6.4881282
-6.1605392 30.663345 -6.34131
8.913517 26.920458 -6.5469022
10.680597 32.447041 -6.6399741
-4.5773211 22.418133 -6.3254328
6.5507708 19.994827 -6.4327478
13.351293 40.800091 -6.7992959
-5.3291469 25.915657 -6.3320742
7.4956541 23.014565 -6.4855599
-6.3492861 30.605743 -6.3390708
8.7417192 26.96829 -6.5450478
10.475151 32.470436 -6.6319251
-4.716269 22.380304 -6.3241882
6.4207339 20.022251 -6.4284658
13.076305 40.825817 -6.7897568
-5.497015 25.905891 -6.3393459
7.3572302 23.053247 -6.4840441
-6.5404358 30.560459 -6.3396301
8.5652065 27.000952 -6.539784
10.260365 32.502151 -6.625104
-4.84834 22.348921 -6.3244662
6.2961459 20.066477 -6.4298358
12.793747 40.82489 -6.7760992
-5.6481638 25.818216 -6.327796
7.2130818 23.101719 -6.4848018
-6.7192612 30.510174 -6.3388262
8.3983936 27.030586 -6.5347748
10.047123 32.537403 -6.6192908
-4.991178 22.329252 -6.3288479
6.17663 20.102413 -6.429493
12.543793 40.875748 -6.7720661
-5.8105812 25.783588 -6.3294792
7.057209 23.11194 -6.4750962
-6.8997102 30.418337 -6.3301821
8.2255697 27.073534 -6.5325351
9.8375006 32.583366 -6.6159372
-5.1322031 22.301039 -6.3310661
6.0476232 20.132238 -6.426753
12.266927 40.887791 -6.761158
-5.9554439 25.713955 -6.3222232
6.9102359 23.150402 -6.4735799
-7.0834479 30.343334 -6.3252659
8.0544767 27.12191 -6.531867
9.6350107 32.610832 -6.609787
-5.2616129 22.223539 -6.3195262
5.916275 20.153709 -6.4216132
11.999686 40.929626 -6.755476
-6.1173491 25.677948 -6.3240461
6.7728958 23.191544 -6.473732
-7.2669182 30.2689 -6.3207002
7.8791342 27.155533 -6.5279131
9.4147692 32.618229 -6.5991659
-5.3979979 22.177122 -6.3170481
5.8056998 20.22024 -6.4317212
11.729477 40.90554 -6.739893
-6.2729311 25.654753 -6.3286681
6.6343789 23.228603 -6.4729729
-7.4292092 30.200813 -6.3164339
7.717216 27.163454 -6.5193539
9.2051096 32.617062 -6.5877619
-5.5181551 22.132114 -6.3139768
5.6769781 20.223583 -6.4219561
11.475755 40.935974 -6.7335691
-6.4269838 25.586903 -6.323122
6.4843469 23.255657 -6.4690299
-7.6090379 30.11483 -6.309885
7.5436449 27.201502 -6.5169821
9.0002956 32.675362 -6.587986
-5.6665521 22.133905 -6.325727
5.5530548 20.270742 -6.425725
11.187779 40.89563 -6.7152371
-6.568119 25.507198 -6.3142262
6.340579 23.272976 -6.4632678
-7.7882242 30.028336 -6.3034511
7.377357 27.265999 -6.5211992
8.7895012 32.665989 -6.5754638
-5.7972531 22.066435 -6.3179369
5.4248581 20.302526 -6.4248681
10.937618 40.991398 -6.7195449
-6.7300682 25.472292 -6.317286
6.1962609 23.320013 -6.4653912
-7.9753461 29.973558 -6.3039088
7.1900201 27.251642 -6.5068321
8.5905046 32.745049 -6.5803838
-5.924644 22.018818 -6.315402
5.2899842 20.308558 -6.416131
10.651148 40.948971 -6.701488
-6.8788738 25.388508 -6.3084598
6.0420952 23.329449 -6.4573531
-8.1421185 29.8855 -6.296917
7.037149 27.328659 -6.5151358
8.3749056 32.760487 -6.5727811
-6.053483 21.947109 -6.306828
5.1702061 20.34285 -6.4171591
10.398285 40.973312 -6.6952538
-7.044579 25.367546 -6.3154869
5.896224 23.370243 -6.4582629
-8.318388 29.793123 -6.289906
6.8596058 27.349632 -6.5097318
-10.248816 36.510246 -6.3444471
8.1644554 32.794598 -6.5692029
5.0430951 20.378197 -6.4181871
10.127728 40.985588 -6.6867299
-7.1956968 25.327793 -6.3173981
5.7554121 23.396576 -6.4559879
13.349963 54.433323 -6.8816428
-8.501071 29.725069 -6.2882571
6.6823478 27.370562 -6.504591
-10.46164 36.388187 -6.3364148
7.966043 32.827377 -6.566185
4.9119391 20.396952 -6.414247
9.8528271 40.976952 -6.6750889
-7.3372478 25.222115 -6.3037782
5.6048689 23.417965 -6.452045
13.045641 54.590775 -6.8916402
-8.6746655 29.626656 -6.2804108
6.5086589 27.405342 -6.5030098
-10.675447 36.272064 -6.3296328
7.7568521 32.865028 -6.5638371
4.7797241 20.410498 -6.408936
9.5956945 41.040302 -6.675456
-7.5015049 25.195423 -6.3101301
5.4550538 23.441694 -6.4490118
-8.8321304 29.513872 -6.2689819
6.3419318 27.426239 -6.4989238
-10.878221 36.121529 -6.317049
7.5418439 32.876675 -6.5565701
4.6611371 20.449974 -6.4125338
9.3428726 41.056458 -6.6689482
-7.6484499 25.110979 -6.302259
5.3052788 23.464981 -6.4461212
-9.0036926 29.413033 -6.261023
6.1674819 27.456633 -6.4968152
-11.083948 35.984245 -6.3069758
7.3387542 32.939693 -6.5598121
4.5321922 20.477217 -6.4120202
9.0570049 40.988899 -6.6485991
-7.7904701 25.043108 -6.2980099
5.1698399 23.513775 -6.450984
11.986736 54.700851 -6.8757868
-9.1851435 29.345726 -6.2604251
5.9952111 27.496515 -6.497211
-11.286102 35.882278 -6.3025112
7.1365829 32.952309 -6.5537748
4.3959041 20.47019 -6.4010439
8.8102055 41.095924 -6.6568489
-7.9449811 24.985226 -6.2972541
5.016685 23.520885 -6.44416
11.603791 54.497986 -6.8415122
-9.3523922 29.269644 -6.2574072
5.8264961 27.505915 -6.491147
-11.473835 35.73682 -6.2905869
6.9352331 32.96706 -6.548408
4.2730961 20.489882 -6.3991599
8.5487261 41.063629 -6.6432829
-8.0944214 24.941694 -6.2995749
4.8742671 23.53694 -6.4405198
11.264179 54.48843 -6.8318
-9.5080271 29.15877 -6.247139
5.6536732 27.54254 -6.4912791
-11.679141 35.606075 -6.282249
6.7291069 33.015621 -6.5495262
4.1512098 20.513779 -6.398818
8.2872314 41.100079 -6.640625
-8.2329493 24.835968 -6.2871861
4.7249489 23.560442 -6.4387002
10.910069 54.50053 -6.8245878
-9.6804295 29.066566 -6.2418642
5.4854512 27.552086 -6.485743
-11.899961 35.524029 -6.2827258
6.5090652 32.994045 -6.537004
4.0201979 20.529043 -6.3955741
8.0395308 41.129787 -6.6375999
-8.3887348 24.783453 -6.288486
4.571856 23.564068 -6.4317141
10.53657 54.408707 -6.8046651
-9.8622131 29.003248 -6.2430239
5.3103938 27.576479 -6.4835019
-12.075903 35.351345 -6.2665272
6.302815 33.040508 -6.5382342
3.89009 20.548395 -6.3938608
7.7798729 41.173805 -6.636683
-8.5275536 24.709764 -6.2838168
4.4304891 23.583033 -6.4296012
10.183484 54.414955 -6.7973099
-10.03869 28.924688 -6.2411432
5.1346202 27.59639 -6.4804711
-12.278658 35.219917 -6.2586651
6.1047602 33.067146 -6.536222
3.7619121 20.577944 -6.3955741
7.5117741 41.171204 -6.6285248
-8.6870899 24.668337 -6.2884159
4.2815118 23.60647 -6.4285288
9.8334694 54.325638 -6.7787442
-10.189271 28.773619 -6.2238111
4.9611268 27.628107 -6.4804711
-12.469007 35.055763 -6.2451749
5.8956628 33.098057 -6.5348802
3.6372001 20.585558 -6.39112
7.2467222 41.182251 -6.6228418
-8.8302517 24.580801 -6.2815018
4.1292109 23.610641 -6.422473
9.5115376 54.498642 -6.7927399
-10.358764 28.709677 -6.2246552
4.7908468 27.621059 -6.4720349
-12.662313 34.903103 -6.2339101
5.6854458 33.121975 -6.5324211
3.5093839 20.617395 -6.394032
7.0049291 41.240501 -6.6254091
-8.9850016 24.526144 -6.2832189
3.977114 23.614353 -6.4165592
9.1403961 54.387562 -6.7716041
-10.522981 28.600628 -6.2168002
4.6121278 27.620207 -6.4649181
-12.866316 34.819527 -6.2342882
5.4765682 33.153069 -6.5316381
3.37833 20.630228 -6.3913031
6.7294331 41.184322 -6.6094599
-9.125102 24.458241 -6.2808909
3.834285 23.621338 -6.4121609
8.8342123 54.664955 -6.7990961
-10.698535 28.523443 -6.2160902
4.4417529 27.668934 -6.4696631
-13.051515 34.649532 -6.220293
5.2743149 33.150902 -6.52493
3.2489829 20.653223 -6.3919759
6.4682002 41.210926 -6.6070771
-9.2709932 24.380424 -6.2771282
3.686491 23.649435 -6.4133739
8.4438019 54.292892 -6.7464681
-10.863081 28.417833 -6.2094049
4.2609482 27.651718 -6.45925
-13.238829 34.488335 -6.208045
5.0629678 33.164055 -6.5211291
3.11782 20.664402 -6.3892469
6.2064729 41.233051 -6.6042409
3.5380809 23.673849 -6.4138389
8.1255751 54.499603 -6.765676
-11.031626 28.353132 -6.2109551
4.0962 27.672564 -6.4583268
-13.421267 34.317543 -6.1942391
4.854661 33.19635 -6.5213518
2.992003 20.660875 -6.3825541
5.9603601 41.259991 -6.6027751
3.3872621 23.681604 -6.410048
7.7573571 54.369953 -6.7433968
-11.189769 28.233337 -6.2015729
3.916811 27.659351 -6.4493728
-13.610059 34.235355 -6.1946988
4.6754022 33.183155 -6.5138612
2.884866 20.684027 -6.384953
5.7435241 41.285473 -6.6019502
-9.6739874 24.162233 -6.2673221
3.2707901 23.692793 -6.4086728
7.4638672 54.346447 -6.7355418
-11.333276 28.164001 -6.2006111
3.7735479 27.691324 -6.4521322
-13.757009 34.049797 -6.176599
4.4804068 33.225136 -6.516768
2.7530749 20.688414 -6.3808408
5.4808822 41.297188 -6.598186
-9.8156137 24.076452 -6.2623329
3.11994 23.698286 -6.4047298
7.1338949 54.333851 -6.7286158
-11.498357 28.063795 -6.1959162
3.6002929 27.720715 -6.4535818
-13.971219 33.964005 -6.17872
4.266943 33.21669 -6.5097251
2.621624 20.694187 -6.3774152
5.2169452 41.29636 -6.5926862
2.9672501 23.687658 -6.3966918
6.7865281 54.330856 -6.7228322
-11.656626 27.975721 -6.19313
3.434119 27.728559 -6.450551
4.057457 33.237137 -6.508606
2.5011261 20.728848 -6.3834109
4.9704151 41.315098 -6.5908532
2.818759 23.709206 -6.397603
6.4711761 54.59304 -6.7501101
-11.812102 27.854605 -6.1842098
3.2578969 27.733145 -6.4467282
-14.334184 33.671146 -6.1604948
3.8438449 33.221367 -6.5006609
2.3696251 20.733578 -6.380156
4.7115798 41.352989 -6.5920439
-10.24097 23.847982 -6.2552171
2.67541 23.702419 -6.3913751
6.128551 54.637245 -6.7506809
-11.986533 27.779024 -6.185616
3.0821309 27.740017 -6.443696
3.644762 33.226479 -6.497314
2.2391219 20.746349 -6.379631
4.4435511 41.306396 -6.5800371
-10.385251 23.770905 -6.253386
2.5251169 23.706417 -6.3880482
5.7942138 54.578384 -6.7390409
-12.149866 27.678171 -6.181623
2.9064081 27.745775 -6.4406648
-14.71724 33.400028 -6.1480031
3.4389379 33.277901 -6.503016
2.1088991 20.761717 -6.380156
4.1834631 41.328896 -6.5793042
-10.523154 23.679873 -6.2481041
2.3782599 23.743216 -6.3938112
-12.31214 27.601646 -6.1822429
2.7405889 27.751171 -6.4380288
3.2246721 33.246185 -6.4927311
1.982355 20.739285 -6.369534
3.9379759 41.351265 -6.5790291
-10.661762 23.59123 -6.2436628
2.226176 23.727261 -6.385622
5.1177731 54.75227 -6.752038
-12.456024 27.459158 -6.1693239
2.5642791 27.747375 -6.4332838
3.016289 33.272091 -6.4939599
1.854648 20.780909 -6.3786139
3.677006 41.363087 -6.5771041
2.07636 23.732885 -6.3834991
-12.625293 27.373814 -6.1694412
2.3891039 27.753839 -6.4311752
2.8160789 33.257309 -6.4877
1.722977 20.779308 -6.3746738
3.4159479 41.372105 -6.574996
-10.934208 23.427134 -6.2378402
1.937513 23.769608 -6.390172
-12.788132 27.274952 -6.166739
2.2143121 27.76375 -6.43012
-41.894119 89.272087 -6.1654801
2.6069281 33.272625 -6.4873638
1.593025 20.798105 -6.377244
3.154438 41.373135 -6.5718789
-11.063002 23.319635 -6.2290001
1.784265 23.729956 -6.3763709
4.0922918 54.680992 -6.732758
-12.936799 27.17137 -6.1620722
2.0485971 27.763874 -6.4272208
-42.302502 88.768784 -6.152596
2.3955879 33.25737 -6.4813271
1.4687901 20.796013 -6.373817
2.8941391 41.388096 -6.571238
1.627234 23.746952 -6.3778982
-13.093558 27.037144 -6.1528721
1.8653359 27.79056 -6.4303932
-42.746048 88.18866 -6.1370869
2.1872621 33.282135 -6.4833469
1.329332 20.781811 -6.366622
2.6346231 41.414703 -6.5727038
-11.352126 23.172577 -6.230134
1.486604 23.761236 -6.379252
-13.233125 26.916979 -6.1447911
1.6884 27.76412 -6.4216938
-43.128128 87.570763 -6.1177249
1.97817 33.296368 -6.4835711
1.2073179 20.812267 -6.3736458
2.3864861 41.389164 -6.566288
-11.491012 23.087757 -6.2280211
1.3347681 23.725466 -6.3672719
-13.414927 26.859213 -6.1523199
1.522331 27.75024 -6.4162812
-43.523472 87.066147 -6.1050301
1.779721 33.291973 -6.4805441
1.074878 20.787546 -6.3638811
2.12588 41.393517 -6.5647302
-11.612013 22.987881 -6.2208819
1.194923 23.752188 -6.3724279
-13.567959 26.743912 -6.1469121
1.3482471 27.76553 -6.4177299
-43.837067 86.332886 -6.0776811
1.5697761 33.286987 -6.4775262
0.95101601 20.782887 -6.3606148
1.8666689 41.426292 -6.5679379
-11.751393 22.90506 -6.2197328
1.0447381 23.738268 -6.366807
-13.728124 26.666235 -6.1491842
1.18329 27.769049 -6.4168081
-43.980446 85.35672 -6.0317988
1.3591419 33.260563 -6.4705939
0.820548 20.791811 -6.3616428
-21.361475 41.140148 -6.1793818
1.622641 41.483479 -6.5753622
-11.88169 22.824516 -6.218225
0.90372598 23.740656 -6.3658972
-13.879564 26.549162 -6.143775
1.008604 27.770802 -6.4156222
-44.562645 85.168068 -6.0429859
1.161767 33.268616 -6.470706
0.68916899 20.774715 -6.3549619
1.362399 41.506161 -6.5774698
-12.017547 22.735567 -6.215847
0.75403899 23.730026 -6.3616509
-14.017362 26.42956 -6.1367488
0.843045 27.75172 -6.409945
-44.967319 84.713867 -6.034164
0.95106602 33.217728 -6.459518
0.56551301 20.765034 -6.350862
1.113834 41.430206 -6.564271
0.61282998 23.719374 -6.357708
-14.174289 26.324514 -6.1345158
0.66771197 27.717089 -6.4008498
-45.434753 84.310989 -6.03053
0.75403601 33.227386 -6.460413
0.43485701 20.759811 -6.3483028
0.85197502 41.362328 -6.5525389
0.463664 23.716568 -6.35605
-14.322956 26.226582 -6.132905
0.502882 27.701725 -6.3965011
-45.810719 83.813858 -6.0188818
0.543966 33.153255 -6.4452081
0.311717 20.765911 -6.3494911
-22.181721 40.281765 -6.1392851
0.60724998 41.417 -6.560513
0.31476101 23.728069 -6.3584762
-14.466991 26.099148 -6.125843
0.32897499 27.717506 -6.3995409
-46.215431 83.306267 -6.0079989
0.34748101 33.18063 -6.4500151
0.181348 20.780346 -6.3534312
-22.413296 40.103878 -6.1358972
0.34709701 41.430412 -6.5621629
0.173851 23.715937 -6.354836
-14.636371 26.039101 -6.1335421
0.15465599 27.690443 -6.392942
-46.394386 82.40403 -5.9686408
0.13906799 33.199451 -6.4533758
0.057998002 20.768692 -6.3496509
-22.684525 40.029537 -6.147265
0.101199 41.415539 -6.559597
0.024836 23.715391 -6.3545232
-14.782117 25.894808 -6.124207
-0.019323001 27.680058 -6.3904471
-46.809837 81.933434 -5.9605422
